ply
format ascii 1.0
element vertex 1287
property float x
property float y
property float z
property uchar red
property uchar green
property uchar blue
end_header
0.107976 -0.019369 0.309921 127 127 0
-0.226988 0.019003 0.008769 0 0 255
-0.231313 -0.001559 -0.062045 0 0 255
0.191120 0.017966 -0.387912 255 0 0
0.111845 -0.018547 -0.272755 255 0 0
-0.009600 -0.020463 -0.044364 255 0 0
-0.006218 -0.020463 -0.144199 255 0 0
-0.079629 0.019002 -0.091872 255 0 0
-0.300919 0.005683 0.095572 0 0 255
-0.499654 -0.019609 -0.084431 0 255 0
-0.046497 -0.000298 -0.176854 255 0 0
-0.001612 -0.019369 0.214124 127 127 0
-0.038239 -0.002905 0.087596 127 127 0
0.130668 -0.001290 -0.296767 255 0 0
-0.432876 -0.001470 -0.038448 0 255 0
-0.642436 -0.000438 -0.080302 0 255 0
-0.387351 0.018800 0.109195 0 0 255
0.130346 0.019060 0.183911 127 127 0
0.140694 0.017966 -0.104054 255 0 0
-0.054544 -0.020129 0.112574 127 127 0
-0.369007 0.018946 0.090944 0 0 255
0.154791 -0.020463 -0.371662 255 0 0
-0.633785 -0.001470 -0.107978 0 255 0
-0.195500 -0.001470 0.097173 0 255 0
0.550975 0.019060 0.362388 127 127 0
-0.361879 -0.001739 0.098621 0 0 255
0.255272 -0.000526 0.224797 127 127 0
0.110084 0.019060 0.387499 127 127 0
-0.104429 -0.018921 0.050625 127 127 0
0.136850 0.019060 0.134901 127 127 0
0.271108 0.016940 0.475513 127 127 0
-0.109212 -0.000334 -0.030181 255 0 0
0.304792 -0.019369 0.474818 127 127 0
-0.168461 0.018638 -0.009284 0 0 255
0.143734 0.017966 -0.319456 255 0 0
0.385401 -0.002148 -0.218733 255 0 0
-0.703304 -0.002940 -0.100322 0 255 0
-0.184650 -0.000455 0.002184 0 255 0
0.127313 0.018259 0.412545 127 127 0
-0.030506 0.012946 0.247710 127 127 0
-0.010700 0.017966 -0.137738 255 0 0
0.311966 0.017966 -0.405110 255 0 0
-0.920440 0.015059 0.221681 0 0 255
0.084629 -0.020463 -0.216839 255 0 0
-0.089224 -0.019372 0.063295 127 127 0
0.095016 0.019060 0.126554 127 127 0
-0.533960 -0.012805 -0.065287 0 255 0
-0.653065 0.018671 0.156926 0 0 255
-0.333150 -0.019775 0.081756 0 255 0
-0.391878 0.014553 0.075479 0 0 255
-0.921269 -0.009735 -0.175403 0 255 0
-0.225219 -0.018905 0.110209 0 255 0
0.536119 0.017966 -0.303945 255 0 0
0.238920 -0.003462 -0.362374 255 0 0
-0.526851 0.011978 0.105823 0 0 255
0.079677 0.019060 0.294354 127 127 0
-0.760516 -0.000897 -0.154168 0 255 0
0.107937 -0.019369 0.190792 127 127 0
-0.350366 -0.019609 0.053975 0 255 0
-0.205701 0.018984 0.000624 0 0 255
-0.487925 -0.000871 -0.093772 0 255 0
-0.466323 -0.005690 -0.015702 0 255 0
0.539611 -0.000077 -0.349398 255 0 0
-0.136103 0.017766 0.026595 0 0 255
-0.274939 -0.004040 0.097891 0 255 0
0.268112 -0.007790 -0.372807 255 0 0
0.427043 -0.020463 -0.204871 255 0 0
-0.404748 -0.000934 0.005178 0 255 0
0.172668 0.017966 -0.138327 255 0 0
-0.006983 0.019060 0.179882 127 127 0
-0.942546 -0.000881 0.211891 0 0 255
-0.448993 -0.001739 0.060035 0 0 255
-0.472797 -0.001739 0.095331 0 0 255
0.554137 -0.013702 -0.270331 255 0 0
-0.583151 -0.019609 -0.106566 0 255 0
0.439803 0.001909 0.465094 127 127 0
-0.033124 -0.020463 -0.049499 255 0 0
-0.073830 -0.020129 0.145503 127 127 0
0.170288 -0.019369 0.150572 127 127 0
0.094637 -0.011858 0.110883 127 127 0
-0.003361 -0.019369 0.248010 127 127 0
0.356399 0.000030 -0.151420 255 0 0
-0.727927 -0.006190 -0.109892 0 255 0
-0.616044 -0.001739 0.129341 0 0 255
0.047657 -0.019369 0.117156 127 127 0
0.500895 -0.002645 0.362938 127 127 0
0.065206 -0.019369 0.142656 127 127 0
0.228660 0.000476 -0.111000 255 0 0
0.334259 0.004152 0.186705 127 127 0
0.235419 0.017966 -0.133011 255 0 0
0.296770 0.019060 0.458775 127 127 0
0.299556 -0.020463 -0.432926 255 0 0
-0.246834 0.018049 -0.050307 0 0 255
-0.228689 -0.001470 0.088209 0 255 0
0.459521 0.004754 0.281716 127 127 0
0.211338 0.019060 0.441266 127 127 0
0.339704 0.015437 -0.205999 255 0 0
-0.109523 -0.000934 0.107064 127 127 0
0.508026 0.002337 -0.294465 255 0 0
-0.772507 -0.001091 0.198568 0 0 255
-0.272760 -0.026350 0.012503 76 0 153
-0.626833 -0.001292 -0.126877 0 255 0
0.064389 -0.019369 0.181712 127 127 0
0.111702 0.005250 -0.073991 255 0 0
0.333576 -0.011794 -0.441315 255 0 0
-0.481201 -0.001470 -0.054276 0 255 0
-0.545561 -0.006603 -0.048977 0 255 0
-0.210309 0.016929 0.048210 0 0 255
0.233991 -0.020463 -0.379703 255 0 0
-0.278950 -0.003103 -0.048340 0 255 0
0.192373 0.004962 -0.099518 255 0 0
-0.442901 -0.001470 -0.017455 0 255 0
-0.354892 -0.001470 0.039318 0 255 0
-0.307772 -0.001470 0.067597 0 255 0
0.249204 -0.020463 -0.135174 255 0 0
-0.003812 -0.019369 0.109235 127 127 0
-0.222067 -0.020129 0.042621 0 255 0
-0.619488 -0.006304 -0.072009 0 255 0
-0.669252 -0.001470 -0.121000 0 255 0
0.493481 -0.019369 0.406126 127 127 0
-0.250884 0.032935 0.036011 76 0 153
-0.626363 -0.000730 0.100192 0 0 255
-0.685031 0.015716 0.158600 0 0 255
-0.073289 0.018626 -0.036068 255 0 0
-0.254209 -0.000602 0.033556 0 255 0
0.076885 -0.019369 0.292286 127 127 0
0.357870 0.017966 -0.194898 255 0 0
-0.199226 -0.020129 -0.011943 0 255 0
-0.499401 -0.000244 0.124328 0 0 255
0.533964 0.006486 -0.223846 255 0 0
0.342040 0.019060 0.483314 127 127 0
-0.254455 0.017191 -0.008457 76 0 153
0.553169 -0.007065 -0.310371 255 0 0
-0.152604 -0.000173 0.022131 0 255 0
0.055259 0.019060 0.141518 127 127 0
0.018846 0.017966 -0.239673 255 0 0
0.269865 0.019060 0.204647 127 127 0
0.019159 0.017966 -0.111134 255 0 0
0.154708 0.019060 0.383696 127 127 0
0.471296 0.017966 -0.230981 255 0 0
-0.352397 -0.020129 0.008732 0 255 0
0.184078 0.019060 0.419891 127 127 0
-0.266254 0.032935 0.004027 76 0 153
-0.286649 -0.016653 0.053709 76 0 153
-0.170969 -0.019213 0.024838 0 255 0
0.028424 0.017966 -0.164852 255 0 0
0.057060 -0.020463 -0.181150 255 0 0
0.146359 0.019028 0.194445 127 127 0
0.545207 0.017528 -0.245034 255 0 0
-0.573415 0.000428 0.145947 0 0 255
0.156457 -0.004129 -0.315090 255 0 0
0.072592 0.019060 0.119583 127 127 0
-0.292714 -0.000793 0.025139 0 255 0
-0.039191 0.019060 0.159079 127 127 0
0.505859 -0.018003 -0.199690 255 0 0
-0.444093 -0.001470 -0.074480 0 255 0
-0.839661 0.007563 0.193583 0 0 255
-0.155264 0.000334 -0.031066 0 0 255
0.116870 0.017966 -0.315994 255 0 0
0.279961 -0.015856 0.418608 127 127 0
-0.413049 -0.000934 -0.060892 0 255 0
-0.592732 -0.010716 -0.078502 0 255 0
-0.147994 0.001015 0.053600 0 0 255
-0.329757 -0.001470 0.005524 0 255 0
0.098006 -0.019369 0.148857 127 127 0
0.090160 -0.020463 -0.247987 255 0 0
-0.238346 -0.018980 0.058664 0 255 0
0.479806 0.009495 0.394670 127 127 0
-0.311110 0.014446 0.010143 76 0 153
-0.023910 0.017966 -0.163059 255 0 0
-0.318642 -0.019609 -0.044744 0 255 0
0.309825 -0.015710 0.240000 127 127 0
0.506794 0.017966 -0.379941 255 0 0
-0.181219 -0.001739 -0.035227 0 0 255
-0.745819 0.000367 0.184372 0 0 255
0.340017 0.019060 0.446376 127 127 0
0.467772 -0.020463 -0.190978 255 0 0
-0.893685 -0.001649 -0.168870 0 255 0
0.465048 -0.019369 0.253472 127 127 0
-0.107438 0.016518 -0.021429 255 0 0
-0.535001 -0.001171 -0.026609 0 255 0
0.313937 0.019060 0.441531 127 127 0
0.086103 -0.019369 0.199661 127 127 0
0.033991 0.017966 -0.225489 255 0 0
-0.298014 -0.001470 -0.017730 0 255 0
-0.843831 -0.001470 -0.159030 0 255 0
0.093547 0.010587 0.388871 127 127 0
-0.544440 -0.001403 0.071979 0 0 255
0.106529 0.019060 0.331888 127 127 0
0.027230 -0.019369 0.274465 127 127 0
0.520196 -0.003930 0.420157 127 127 0
0.040640 -0.001167 0.342051 127 127 0
-0.249659 -0.019781 -0.040769 0 255 0
-0.464339 -0.019609 -0.081967 0 255 0
-0.353198 -0.018609 -0.030743 0 255 0
0.548218 0.001036 0.374602 127 127 0
0.074575 -0.019369 0.163545 127 127 0
0.272835 0.017966 -0.169778 255 0 0
0.142098 0.019060 0.347484 127 127 0
-0.663674 -0.013517 -0.107749 0 255 0
-0.444779 -0.019609 -0.066155 0 255 0
0.159637 0.017966 -0.103713 255 0 0
-0.799943 -0.001738 0.200218 0 0 255
0.234498 -0.017775 0.402746 127 127 0
0.126328 -0.019369 0.153976 127 127 0
0.019521 0.019060 0.277513 127 127 0
0.495320 0.005932 0.237669 127 127 0
0.124772 -0.011426 0.410856 127 127 0
-0.291559 -0.026350 0.028800 76 0 153
-0.242833 -0.018945 -0.011413 0 255 0
-0.217944 -0.015319 -0.034587 0 255 0
-0.119882 -0.019583 0.087374 127 127 0
0.297614 0.019060 0.216333 127 127 0
0.277388 0.017177 -0.188633 255 0 0
-0.134527 -0.001470 0.076866 0 255 0
0.130137 0.017966 -0.350116 255 0 0
-0.368698 -0.019032 0.000153 0 255 0
-0.713620 0.017097 0.187637 0 0 255
0.461427 0.019060 0.448940 127 127 0
-0.528923 -0.000023 0.128869 0 0 255
0.402828 0.017966 -0.413743 255 0 0
-0.412971 -0.000934 -0.035149 0 255 0
-0.270648 0.013331 -0.057246 0 0 255
-0.008293 -0.019369 0.080243 127 127 0
0.069531 0.017890 -0.060647 255 0 0
-0.243430 -0.019057 0.105277 0 255 0
-0.433117 -0.000336 0.107640 0 0 255
0.317447 -0.020463 -0.157999 255 0 0
0.012093 0.019060 0.143256 127 127 0
-0.281391 0.016929 0.070664 0 0 255
-0.453439 0.014071 0.094991 0 0 255
-0.127671 -0.019405 0.053251 0 255 0
0.167419 -0.020463 -0.130583 255 0 0
0.331530 -0.020463 -0.394033 255 0 0
-0.818408 -0.011614 -0.170241 0 255 0
-0.323304 0.018835 0.022991 0 0 255
0.004188 0.003304 0.082263 127 127 0
0.230693 -0.020463 -0.154775 255 0 0
-0.647126 0.007201 0.131402 0 0 255
-0.513904 -0.006792 -0.036496 0 255 0
0.307518 -0.019369 0.427189 127 127 0
0.081417 0.019060 0.264393 127 127 0
-0.127419 -0.001470 0.117647 127 127 0
0.049660 0.017966 -0.194746 255 0 0
0.143222 0.000496 -0.151244 255 0 0
0.364735 -0.020463 -0.425103 255 0 0
0.273118 0.017966 -0.391914 255 0 0
0.048867 -0.019369 0.277426 127 127 0
-0.131244 -0.000603 -0.090920 255 0 0
0.069752 0.019060 0.184054 127 127 0
0.052975 0.017966 -0.163098 255 0 0
-0.081933 -0.001129 0.068385 127 127 0
0.223921 -0.019369 0.196656 127 127 0
0.004439 -0.020463 -0.247668 255 0 0
0.315240 0.019060 0.232427 127 127 0
-0.196514 -0.001470 -0.019531 0 255 0
0.163170 0.019060 0.431288 127 127 0
-0.506549 -0.001470 -0.081500 0 255 0
-0.407141 -0.001739 0.080671 0 0 255
-0.043895 0.019060 0.213314 127 127 0
-0.512564 0.018636 0.140164 0 0 255
-0.631158 0.019002 0.158913 0 0 255
0.010587 0.017966 -0.146811 255 0 0
-0.066405 -0.001739 -0.098555 255 0 0
-0.180041 -0.001470 0.035534 0 255 0
0.086728 0.019060 0.204699 127 127 0
-0.719674 -0.019415 -0.129097 0 255 0
0.397630 0.009899 0.478251 127 127 0
-0.580655 -0.000755 -0.098021 0 255 0
0.059550 0.019060 0.221649 127 127 0
-0.023930 0.019060 0.105909 127 127 0
0.505418 -0.016984 -0.262585 255 0 0
-0.417533 0.016930 0.104172 0 0 255
0.325665 0.005663 -0.440839 255 0 0
0.470465 0.019060 0.252650 127 127 0
0.008964 0.017966 -0.167231 255 0 0
-0.165964 -0.020129 0.114380 0 255 0
-0.092846 -0.019609 0.104910 127 127 0
0.405654 0.019060 0.455618 127 127 0
-0.038884 -0.019369 0.205615 127 127 0
0.439460 0.001923 -0.422242 255 0 0
0.048467 -0.019369 0.190035 127 127 0
-0.593964 -0.001206 -0.046988 0 255 0
0.034664 0.017966 -0.290869 255 0 0
0.050006 -0.020463 -0.245866 255 0 0
0.032238 -0.020463 -0.222205 255 0 0
0.471916 -0.020463 -0.378337 255 0 0
0.551156 0.000909 -0.260397 255 0 0
-0.555728 0.000376 0.120378 0 0 255
-0.291075 -0.000934 0.079089 0 255 0
-0.209196 -0.020129 0.007809 0 255 0
0.273760 -0.019369 0.169481 127 127 0
-0.941405 -0.018943 -0.187244 0 255 0
-0.308654 0.024526 0.035082 76 0 153
-0.690682 -0.001470 -0.125963 0 255 0
0.432232 0.019060 0.232588 127 127 0
0.504977 -0.020463 -0.365023 255 0 0
0.056192 0.017966 -0.265539 255 0 0
0.170313 -0.001713 0.366843 127 127 0
-0.325083 -0.001673 0.096663 0 0 255
0.177281 0.017966 -0.113354 255 0 0
0.173269 -0.020463 -0.338724 255 0 0
0.003085 0.019060 0.258240 127 127 0
-0.144869 -0.020129 0.000801 0 255 0
0.316927 0.017966 -0.196336 255 0 0
0.535664 0.017966 -0.285967 255 0 0
0.305666 0.019060 0.190645 127 127 0
-0.751599 -0.001739 0.160392 0 0 255
0.231611 0.017966 -0.377084 255 0 0
0.402799 -0.020463 -0.397430 255 0 0
0.050235 -0.014796 0.351479 127 127 0
-0.099661 -0.001470 0.074644 127 127 0
0.066396 0.019060 0.357346 127 127 0
0.128016 -0.001844 0.335893 127 127 0
-0.907048 -0.001739 0.212116 0 0 255
0.244465 -0.020463 -0.171093 255 0 0
-0.555224 0.017623 0.151438 0 0 255
-0.020984 -0.020463 -0.154011 255 0 0
0.221841 0.019060 0.210562 127 127 0
-0.041034 0.019060 0.192740 127 127 0
-0.311778 -0.008426 0.012060 76 0 153
-0.005261 -0.019369 0.194025 127 127 0
-0.117138 0.016929 -0.074932 255 0 0
0.094271 0.017966 -0.203982 255 0 0
-0.512817 -0.000934 -0.061276 0 255 0
0.024366 0.019060 0.200880 127 127 0
-0.689519 -0.020129 -0.125120 0 255 0
0.100343 -0.019369 0.129469 127 127 0
0.335703 0.019060 0.465169 127 127 0
0.262701 0.017966 -0.430548 255 0 0
0.100203 0.000414 0.224785 127 127 0
0.125950 -0.013121 0.190793 127 127 0
0.531002 -0.019369 0.349223 127 127 0
-0.500926 -0.003957 -0.021669 0 255 0
0.273012 -0.019369 0.450469 127 127 0
-0.562940 -0.012963 -0.076092 0 255 0
-0.197701 0.016929 0.019857 0 0 255
-0.414563 0.009975 0.068934 0 0 255
0.530522 0.019060 0.286761 127 127 0
-0.772582 -0.006730 -0.127630 0 255 0
0.323995 0.017966 -0.155873 255 0 0
0.131551 -0.020463 -0.327303 255 0 0
0.004869 0.002357 -0.259451 255 0 0
-0.860459 -0.019027 -0.179108 0 255 0
-0.327218 0.018321 -0.013914 0 0 255
0.002721 0.017966 -0.232869 255 0 0
-0.126631 0.000334 -0.055521 255 0 0
-0.107722 -0.001269 -0.095909 255 0 0
-0.026800 0.011339 -0.213250 255 0 0
-0.380508 0.000127 0.065640 0 0 255
-0.544102 -0.001470 -0.081717 0 255 0
0.236989 0.019060 0.464451 127 127 0
-0.868607 0.000734 0.190095 0 0 255
-0.755594 0.014886 0.182280 0 0 255
-0.026434 -0.019369 0.119424 127 127 0
0.073670 0.017966 -0.315589 255 0 0
0.259400 -0.007795 -0.120727 255 0 0
-0.410138 0.001376 0.112252 0 0 255
0.062044 0.017966 -0.298969 255 0 0
0.145117 0.019060 0.399288 127 127 0
-0.595757 -0.019697 -0.094520 0 255 0
0.211311 0.017966 -0.161672 255 0 0
0.440456 -0.001630 0.276404 127 127 0
-0.741702 -0.000934 -0.119052 0 255 0
0.063487 0.019060 0.330833 127 127 0
-0.216774 0.016929 -0.051033 0 0 255
0.551001 0.019060 0.309652 127 127 0
-0.113855 -0.019609 0.123725 127 127 0
0.005179 -0.012315 0.301241 127 127 0
-0.483195 -0.001738 0.060806 0 0 255
0.140585 -0.019369 0.414954 127 127 0
-0.082440 0.019003 -0.074786 255 0 0
0.103918 -0.019369 0.330120 127 127 0
0.520203 0.019060 0.269758 127 127 0
0.368062 0.019060 0.220435 127 127 0
-0.350787 -0.020129 0.026599 0 255 0
0.473495 -0.019369 0.446404 127 127 0
0.079440 0.017966 -0.232992 255 0 0
0.248160 -0.020463 -0.389580 255 0 0
-0.200107 -0.000666 -0.039690 0 0 255
0.194291 -0.020463 -0.117805 255 0 0
-0.039333 -0.004674 -0.045097 255 0 0
0.069956 -0.020463 -0.304714 255 0 0
-0.259797 0.015545 0.078391 0 0 255
0.508460 0.015279 -0.279843 255 0 0
0.440529 -0.020463 -0.181504 255 0 0
-0.344822 -0.004325 0.079097 0 255 0
-0.238671 -0.001470 -0.026093 0 255 0
-0.475936 0.019003 0.118865 0 0 255
0.063037 -0.020463 -0.216851 255 0 0
-0.509558 0.015114 0.108126 0 0 255
0.404246 -0.020463 -0.169622 255 0 0
0.139103 -0.020463 -0.084020 255 0 0
-0.267232 -0.001470 -0.004093 0 255 0
0.088460 0.017966 -0.147374 255 0 0
0.307099 -0.019369 0.198133 127 127 0
0.024154 -0.019369 0.094027 127 127 0
-0.000187 0.019060 0.275091 127 127 0
-0.581322 0.018994 0.149343 0 0 255
-0.018277 -0.020463 -0.204991 255 0 0
0.443558 -0.002559 -0.378571 255 0 0
0.007951 0.017966 -0.204438 255 0 0
-0.706005 0.004766 0.147136 0 0 255
0.443870 0.017966 -0.222189 255 0 0
-0.430533 -0.000279 0.031606 0 0 255
-0.617371 -0.001091 -0.053650 0 255 0
-0.027297 0.017966 -0.053312 255 0 0
-0.122533 -0.003542 0.137577 127 127 0
0.037923 0.019060 0.325195 127 127 0
0.069865 -0.019369 0.335934 127 127 0
-0.141778 -0.019259 0.033183 0 255 0
-0.140287 -0.019609 0.096800 0 255 0
-0.907378 -0.019079 -0.190003 0 255 0
0.307621 0.019060 0.479992 127 127 0
-0.337107 0.018493 0.042544 0 0 255
-0.203930 -0.019191 0.037495 0 255 0
0.216244 -0.019369 0.180866 127 127 0
0.400218 0.007381 -0.388789 255 0 0
0.094773 -0.019369 0.270728 127 127 0
-0.359418 -0.020033 -0.064457 0 255 0
0.345840 -0.018282 0.429589 127 127 0
0.359466 -0.020463 -0.173576 255 0 0
-0.189392 -0.000162 0.081395 0 255 0
0.213553 0.000274 -0.415144 255 0 0
0.056094 -0.005252 -0.315437 255 0 0
-0.455293 0.016933 0.113968 0 0 255
-0.391441 0.011706 0.057299 0 0 255
-0.031012 0.019060 0.071657 127 127 0
-0.049337 0.019060 0.172612 127 127 0
-0.252768 -0.019610 0.086157 0 255 0
-0.027229 -0.019369 0.137255 127 127 0
-0.877094 -0.012833 -0.165817 0 255 0
0.343554 0.017966 -0.433016 255 0 0
-0.614000 -0.001739 0.112565 0 0 255
-0.321399 -0.005028 -0.057438 0 255 0
-0.216470 -0.001470 0.010516 0 255 0
-0.321638 -0.019279 0.027993 0 255 0
0.103037 -0.020463 -0.291465 255 0 0
0.183297 0.001678 0.138938 127 127 0
0.345538 0.016828 0.190274 127 127 0
-0.940742 -0.000223 0.239166 0 0 255
0.534499 -0.020463 -0.245431 255 0 0
0.122383 -0.002089 -0.367316 255 0 0
0.549427 0.002832 0.295485 127 127 0
0.378498 0.012700 0.430650 127 127 0
0.518593 0.000398 -0.207926 255 0 0
-0.610337 -0.011292 -0.086771 0 255 0
0.085355 0.017966 -0.178327 255 0 0
0.097264 -0.019369 0.233722 127 127 0
0.123520 -0.019369 0.378408 127 127 0
0.380720 -0.008748 0.259757 127 127 0
0.084771 -0.019369 0.367763 127 127 0
-0.539786 -0.019609 -0.097654 0 255 0
-0.072795 -0.001470 0.100335 127 127 0
0.038748 -0.019369 0.157816 127 127 0
0.206813 -0.020463 -0.140087 255 0 0
0.513409 0.017966 -0.315003 255 0 0
-0.813145 -0.018092 -0.152493 0 255 0
0.506732 0.002791 0.348063 127 127 0
0.313655 -0.001935 -0.137894 255 0 0
0.313263 0.001749 0.425952 127 127 0
0.226350 -0.020463 -0.414433 255 0 0
-0.347077 -0.000685 -0.030406 0 255 0
0.034286 -0.020463 -0.149385 255 0 0
0.529972 -0.012329 -0.365168 255 0 0
-0.085995 -0.000342 -0.039791 255 0 0
0.099960 0.017966 -0.085171 255 0 0
0.090875 -0.020463 -0.158094 255 0 0
0.021836 -0.020463 -0.067831 255 0 0
0.272502 0.019060 0.183126 127 127 0
-0.628409 -0.019653 -0.103411 0 255 0
0.254027 -0.013013 0.471210 127 127 0
0.420918 0.006991 -0.171835 255 0 0
0.454894 -0.012162 -0.182586 255 0 0
0.198707 0.017966 -0.146743 255 0 0
-0.137937 0.016929 -0.049867 255 0 0
0.508458 -0.014048 -0.289925 255 0 0
0.335046 0.019060 0.221104 127 127 0
-0.376466 0.001455 0.105824 0 0 255
0.041429 0.017966 -0.077205 255 0 0
0.345090 -0.006523 -0.207500 255 0 0
0.455884 0.003212 -0.415313 255 0 0
-0.888722 -0.001825 -0.185822 0 255 0
0.067105 0.019060 0.274156 127 127 0
-0.198590 0.018885 0.036741 0 0 255
0.110877 0.017966 -0.122774 255 0 0
0.069199 0.003240 0.102834 127 127 0
0.498994 0.019060 0.274712 127 127 0
0.307904 -0.020463 -0.402951 255 0 0
0.419823 -0.019369 0.230740 127 127 0
-0.053464 -0.003941 -0.162407 255 0 0
-0.200147 -0.018942 0.074762 0 255 0
-0.216168 -0.001470 0.100645 0 255 0
0.000272 -0.020463 -0.095424 255 0 0
0.434576 0.006258 0.218448 127 127 0
0.134147 -0.020463 -0.133487 255 0 0
-0.103386 0.016929 -0.061360 255 0 0
0.160284 0.008791 0.131655 127 127 0
-0.275334 0.016816 -0.016122 76 0 153
0.197403 0.017966 -0.111094 255 0 0
0.541447 -0.020463 -0.299203 255 0 0
-0.122957 -0.001258 0.030917 127 127 0
0.093315 0.019060 0.252986 127 127 0
0.293609 -0.020463 -0.177217 255 0 0
-0.523208 -0.020129 -0.086565 0 255 0
0.510158 0.019060 0.303925 127 127 0
0.106479 0.017966 -0.271825 255 0 0
-0.967146 -0.012748 -0.190123 0 255 0
-0.883148 0.016635 0.226011 0 0 255
0.427922 -0.004868 -0.230583 255 0 0
0.033768 0.019060 0.137896 127 127 0
0.366772 -0.019429 -0.387702 255 0 0
0.333605 -0.019369 0.222733 127 127 0
-0.309656 -0.001470 -0.041103 0 255 0
-0.291711 0.018518 0.054163 0 0 255
-0.994821 0.007343 0.240800 0 0 255
-0.801525 -0.001739 0.175661 0 0 255
0.297556 0.010873 -0.380557 255 0 0
0.078275 -0.014244 -0.063414 255 0 0
-0.589459 -0.001739 0.132394 0 0 255
-0.039029 -0.006038 -0.191574 255 0 0
-0.952649 -0.001470 -0.190761 0 255 0
0.186803 -0.020463 -0.354266 255 0 0
0.041079 0.019060 0.202135 127 127 0
0.034832 0.019060 0.282953 127 127 0
-0.437978 -0.001215 0.009360 0 255 0
-0.290001 -0.018609 0.070028 0 255 0
0.509166 -0.009192 0.318835 127 127 0
0.357302 0.017609 -0.151705 255 0 0
-0.060337 0.019002 -0.090157 255 0 0
0.171460 -0.020463 -0.390268 255 0 0
-0.844753 -0.019623 -0.161878 0 255 0
-0.310512 -0.002441 0.085352 0 255 0
0.239728 0.017966 -0.174028 255 0 0
0.234250 0.017966 -0.414778 255 0 0
-0.029571 -0.019369 0.220950 127 127 0
0.183482 -0.012473 0.375929 127 127 0
0.362896 0.019060 0.482652 127 127 0
0.036758 -0.007489 0.092569 127 127 0
0.550725 0.019060 0.344326 127 127 0
0.012345 0.017966 -0.263481 255 0 0
-0.412597 0.014958 0.084783 0 0 255
-0.838034 -0.000608 0.174673 0 0 255
0.098442 -0.000190 0.276075 127 127 0
-0.478923 -0.000812 -0.024555 0 255 0
-0.188834 0.015517 -0.077243 0 0 255
-0.804564 -0.002355 -0.163400 0 255 0
-0.269497 -0.026350 -0.006135 76 0 153
0.405004 0.017966 -0.221908 255 0 0
-0.322781 -0.018609 -0.023058 0 255 0
-0.272723 -0.020120 0.061095 0 255 0
0.364608 -0.018554 0.255267 127 127 0
0.101050 0.019060 0.197268 127 127 0
-0.164608 -0.020129 0.045288 0 255 0
0.241989 -0.019369 0.200925 127 127 0
-0.188458 -0.001470 0.111664 0 255 0
0.240532 0.019060 0.197448 127 127 0
0.380796 -0.005937 0.201431 127 127 0
0.441688 -0.020463 -0.211536 255 0 0
-0.044569 0.002922 0.221432 127 127 0
-0.663848 -0.008901 -0.134598 0 255 0
-0.075866 -0.020129 0.077593 127 127 0
-0.570975 -0.001739 0.094703 0 0 255
0.122494 0.017966 -0.133950 255 0 0
0.523627 -0.020463 -0.270225 255 0 0
0.489404 -0.020463 -0.210632 255 0 0
-0.789513 -0.020129 -0.153667 0 255 0
0.079635 0.017966 -0.196958 255 0 0
0.200259 -0.020463 -0.399004 255 0 0
-0.242977 0.017438 0.009036 0 0 255
0.492514 0.019060 0.420299 127 127 0
0.306658 -0.019369 0.178806 127 127 0
-0.582725 0.009057 0.115325 0 0 255
0.106340 -0.019369 0.171846 127 127 0
0.187361 0.019060 0.396170 127 127 0
-0.430583 -0.019891 -0.081888 0 255 0
0.069118 -0.006655 0.368937 127 127 0
0.261284 0.019060 0.442300 127 127 0
0.468798 -0.018339 -0.361954 255 0 0
-0.740892 -0.001470 -0.136652 0 255 0
-0.009643 -0.019369 0.124151 127 127 0
-0.732384 0.018749 0.178870 0 0 255
0.102364 -0.020463 -0.084648 255 0 0
0.263014 -0.020463 -0.167543 255 0 0
0.179217 -0.005175 -0.399142 255 0 0
-0.193345 -0.019610 0.115063 0 255 0
-0.263430 0.016942 -0.043401 0 0 255
-0.004480 0.017966 -0.113578 255 0 0
0.469412 0.017966 -0.197595 255 0 0
-0.522203 -0.000929 -0.102362 0 255 0
-0.360308 -0.001323 0.022964 0 255 0
-0.227237 0.018769 0.052679 0 0 255
0.012921 -0.019369 0.245487 127 127 0
-0.568852 -0.018599 -0.113775 0 255 0
0.367846 -0.014221 -0.441187 255 0 0
0.032010 -0.019369 0.308783 127 127 0
0.489635 -0.004725 -0.193579 255 0 0
0.292117 0.017966 -0.411086 255 0 0
0.378588 -0.002010 -0.158441 255 0 0
-0.392552 -0.018727 -0.073646 0 255 0
-0.554256 -0.002851 -0.107698 0 255 0
0.524681 0.019060 0.338093 127 127 0
-0.561850 -0.007155 -0.054745 0 255 0
0.103969 0.019060 0.298564 127 127 0
-0.634185 -0.001739 0.133689 0 0 255
-0.050452 0.019060 0.129257 127 127 0
0.339140 0.017966 -0.389699 255 0 0
0.367890 0.017966 -0.428164 255 0 0
0.219092 0.019060 0.405317 127 127 0
-0.053457 -0.000478 0.083827 127 127 0
0.249402 0.004107 -0.117563 255 0 0
0.304450 0.017966 -0.423253 255 0 0
-0.441693 -0.011487 -0.029884 0 255 0
0.195840 -0.015483 0.208235 127 127 0
0.134387 -0.020463 -0.358313 255 0 0
-0.349137 0.019003 0.006509 0 0 255
0.506572 -0.005826 0.429958 127 127 0
-0.323222 -0.020129 0.043741 0 255 0
0.227790 -0.020463 -0.122783 255 0 0
-0.997101 -0.009906 -0.195944 0 255 0
0.202302 0.017966 -0.408352 255 0 0
0.008301 -0.020463 -0.222997 255 0 0
0.398202 -0.016262 -0.435253 255 0 0
-0.054700 -0.019890 0.137443 127 127 0
0.395112 0.019060 0.242601 127 127 0
-0.646386 0.000289 0.108714 0 0 255
0.292943 -0.006714 -0.379458 255 0 0
-0.454157 -0.005587 -0.087951 0 255 0
0.268536 -0.020463 -0.383460 255 0 0
0.409052 -0.008882 0.431643 127 127 0
0.142120 0.003167 0.346812 127 127 0
0.061330 0.017966 -0.235908 255 0 0
0.050328 0.019060 0.174998 127 127 0
0.502709 -0.020463 -0.322579 255 0 0
0.066448 0.002031 -0.324893 255 0 0
0.078586 -0.011859 -0.335231 255 0 0
0.349238 -0.015875 -0.149154 255 0 0
0.204613 0.011731 0.453528 127 127 0
0.065858 0.017966 -0.206326 255 0 0
-0.368666 0.013071 0.027401 0 0 255
-0.545724 0.012634 0.113678 0 0 255
0.106375 0.003553 -0.356675 255 0 0
0.382063 -0.019369 0.225947 127 127 0
0.494532 0.004701 -0.329781 255 0 0
-0.012573 0.019060 0.194691 127 127 0
-0.243351 -0.009372 0.007760 76 0 153
-0.370523 0.014345 0.048885 0 0 255
0.464858 0.019060 0.234952 127 127 0
0.223133 -0.019369 0.156209 127 127 0
-0.095961 -0.000934 0.133873 127 127 0
-0.081470 -0.001531 -0.103214 255 0 0
0.133671 0.017008 -0.080943 255 0 0
0.054624 0.017966 -0.066694 255 0 0
0.411149 -0.019369 0.472811 127 127 0
0.043154 -0.020463 -0.188684 255 0 0
0.065522 -0.020463 -0.159789 255 0 0
-0.299960 0.008371 -0.003272 76 0 153
0.521402 -0.019369 0.280729 127 127 0
-0.112634 -0.000604 0.065869 127 127 0
-0.254147 0.016930 0.063825 0 0 255
-0.761399 0.000510 0.186150 0 0 255
-0.216993 -0.001470 0.036434 0 255 0
-0.276964 0.024947 0.012224 76 0 153
0.326604 -0.019369 0.198381 127 127 0
0.059955 0.019060 0.255024 127 127 0
-0.713601 -0.000852 -0.117060 0 255 0
0.297894 -0.020463 -0.135128 255 0 0
-0.728593 0.001307 0.181472 0 0 255
0.055908 0.019060 0.116039 127 127 0
0.379830 -0.019369 0.469121 127 127 0
-0.195141 -0.019609 0.092544 0 255 0
-0.202719 0.008405 0.070926 0 0 255
-0.244854 -0.000263 0.047182 0 255 0
-0.307501 0.030540 0.001519 76 0 153
-0.520083 0.008762 0.092144 0 0 255
-0.799550 0.010643 0.185312 0 0 255
0.024367 -0.020463 -0.252509 255 0 0
-0.274374 -0.000696 0.079972 0 255 0
-0.022848 -0.006232 0.073708 127 127 0
0.142264 0.005064 -0.305006 255 0 0
-0.678305 -0.001698 0.123049 0 0 255
0.309455 0.017966 -0.388146 255 0 0
0.498124 -0.017671 0.367815 127 127 0
-0.499278 -0.001739 0.094433 0 0 255
-0.062270 0.000764 0.161282 127 127 0
0.411504 -0.020463 -0.217870 255 0 0
-0.783236 0.013095 0.186110 0 0 255
-0.289573 -0.034338 0.008070 76 0 153
0.503186 0.007276 -0.257687 255 0 0
-0.270769 -0.000483 0.017762 0 255 0
-0.663515 0.007776 0.175399 0 0 255
0.338967 0.017966 -0.171320 255 0 0
-0.006566 -0.020463 -0.079023 255 0 0
-0.369875 -0.002291 -0.068852 0 255 0
0.462860 0.005881 -0.366594 255 0 0
-0.290258 0.018549 0.085354 0 0 255
-0.166306 0.016929 0.007847 0 0 255
0.177944 0.019060 0.183887 127 127 0
0.004828 -0.019369 0.180060 127 127 0
-0.251146 -0.019333 0.049519 0 255 0
0.091432 0.017966 -0.266371 255 0 0
0.274793 -0.019369 0.184921 127 127 0
0.479495 0.019060 0.428662 127 127 0
0.274790 0.017966 -0.407294 255 0 0
-0.809644 -0.000620 -0.142144 0 255 0
0.282929 -0.019369 0.464055 127 127 0
-0.153068 0.016362 -0.076331 255 0 0
0.376018 0.017197 -0.388002 255 0 0
-0.281196 -0.001470 0.048900 0 255 0
0.068973 -0.020463 -0.126913 255 0 0
0.510600 -0.006663 0.244726 127 127 0
-0.123571 -0.000931 0.006059 255 0 0
-0.865389 -0.000641 -0.156297 0 255 0
-0.343376 0.018314 -0.010326 0 0 255
0.423313 0.019060 0.266050 127 127 0
-0.445209 0.000334 0.098117 0 0 255
0.463109 0.019060 0.266180 127 127 0
-0.396681 -0.000934 -0.022147 0 255 0
0.489655 -0.019369 0.421037 127 127 0
0.148967 -0.010291 0.195172 127 127 0
-0.064550 0.014668 -0.122705 255 0 0
-0.102167 -0.001470 0.091355 127 127 0
0.002405 -0.020463 -0.062394 255 0 0
0.538496 0.017966 -0.268694 255 0 0
0.155443 -0.019369 0.132735 127 127 0
0.096904 -0.002228 -0.194617 255 0 0
0.238838 -0.004537 0.220217 127 127 0
-0.405835 0.005278 0.039209 0 0 255
-0.087732 -0.001739 -0.072126 255 0 0
0.102654 -0.020463 -0.256974 255 0 0
-0.286365 -0.015986 -0.010867 76 0 153
0.338602 -0.019369 0.188107 127 127 0
0.400687 0.019060 0.208887 127 127 0
0.462960 0.017966 -0.411282 255 0 0
-0.307815 0.018658 0.089069 0 0 255
-0.170851 -0.001470 0.080516 0 255 0
-0.382500 -0.016420 -0.027115 0 255 0
0.453780 -0.012219 0.224525 127 127 0
0.165765 -0.020463 -0.359762 255 0 0
-0.345060 -0.000792 -0.005588 0 255 0
0.366967 0.017966 -0.211723 255 0 0
-0.506740 -0.017519 -0.099809 0 255 0
0.492306 0.017966 -0.234497 255 0 0
-0.036948 -0.020463 -0.155397 255 0 0
0.505548 -0.019369 0.268794 127 127 0
-0.272282 0.009874 0.054880 76 0 153
-0.358536 -0.008540 0.063276 0 255 0
-0.386426 -0.008255 0.003258 0 255 0
0.110982 0.019060 0.157883 127 127 0
-0.180180 -0.018609 -0.010726 0 255 0
-0.585246 -0.006193 -0.061474 0 255 0
0.210386 -0.019369 0.210639 127 127 0
-0.890865 0.003676 0.228791 0 0 255
0.022441 -0.002771 -0.280830 255 0 0
-0.170177 -0.020129 0.085031 0 255 0
-0.409900 -0.020129 -0.062087 0 255 0
0.192713 0.019060 0.167969 127 127 0
0.028335 0.007772 0.328749 127 127 0
0.479618 -0.006602 -0.403386 255 0 0
0.080680 0.019060 0.328564 127 127 0
-0.310105 0.016740 -0.031868 0 0 255
0.482897 -0.007342 -0.347232 255 0 0
-0.892284 -0.001739 0.208435 0 0 255
0.215205 -0.020463 -0.165839 255 0 0
-0.042620 0.014975 -0.184895 255 0 0
-0.185233 -0.013377 -0.026311 0 255 0
0.460388 -0.020463 -0.232657 255 0 0
0.450704 0.019060 0.438177 127 127 0
-0.277206 -0.020029 0.095927 0 255 0
-0.093639 -0.001739 -0.090266 255 0 0
-0.106707 0.015236 -0.099701 255 0 0
-0.947612 0.011866 0.226554 0 0 255
0.540248 -0.019369 0.377355 127 127 0
-0.017974 -0.020463 -0.189331 255 0 0
-0.444618 0.012622 0.079422 0 0 255
-0.412207 -0.001026 -0.077414 0 255 0
-0.014837 0.011860 0.273062 127 127 0
-0.479027 0.010144 0.082593 0 0 255
0.270431 0.004268 0.166509 127 127 0
-0.144912 0.018920 0.010491 0 0 255
-0.368186 -0.020129 -0.051721 0 255 0
-0.437116 0.007448 0.058108 0 0 255
0.176734 0.011237 0.202910 127 127 0
-0.059820 0.000318 -0.053136 255 0 0
0.040172 -0.020463 -0.116169 255 0 0
0.105419 -0.001559 0.205538 127 127 0
-0.648462 -0.001697 0.165268 0 0 255
0.146675 0.017966 -0.121118 255 0 0
0.380109 -0.019477 -0.158922 255 0 0
-0.862730 -0.001721 0.213528 0 0 255
0.202992 -0.005236 -0.102878 255 0 0
-0.467885 -0.000934 -0.047182 0 255 0
-0.918413 -0.002590 -0.190382 0 255 0
-0.458406 0.002895 0.049192 0 0 255
0.414805 -0.007171 -0.169901 255 0 0
0.543298 0.017966 -0.330695 255 0 0
0.040249 0.019060 0.260182 127 127 0
-0.648691 -0.001631 -0.065799 0 255 0
-0.834853 0.007092 0.212968 0 0 255
-0.158570 0.012345 0.059624 0 0 255
0.416459 -0.020463 -0.390930 255 0 0
0.493071 -0.019369 0.250915 127 127 0
0.101591 0.000873 -0.172605 255 0 0
0.384355 -0.020463 -0.197333 255 0 0
-0.140240 -0.001739 -0.061617 255 0 0
-0.260343 -0.026350 0.033280 76 0 153
0.211513 0.019060 0.185682 127 127 0
-0.022299 0.019060 0.223770 127 127 0
0.155531 0.009622 -0.387175 255 0 0
0.160969 0.007244 -0.089580 255 0 0
-0.068867 -0.000934 0.116047 127 127 0
0.555925 0.006405 0.316100 127 127 0
-0.611507 -0.014356 -0.122818 0 255 0
0.378296 -0.020463 -0.417667 255 0 0
-0.167169 0.016910 -0.068538 255 0 0
0.416218 0.019060 0.233273 127 127 0
0.524225 0.017966 -0.274612 255 0 0
-0.679403 0.002622 0.175771 0 0 255
-0.338067 0.016929 0.024856 0 0 255
-0.080813 -0.020129 0.115062 127 127 0
0.279507 -0.015994 -0.189223 255 0 0
-0.184851 0.019003 -0.040625 0 0 255
-0.231758 0.016932 -0.051008 0 0 255
0.197930 0.019060 0.434594 127 127 0
-0.306142 0.016933 0.048323 0 0 255
-0.249349 -0.001470 0.066873 0 255 0
0.482337 0.009462 -0.245747 255 0 0
0.293117 -0.019369 0.453104 127 127 0
-0.488293 0.018035 0.109607 0 0 255
0.293933 0.003491 -0.193243 255 0 0
0.194220 -0.020463 -0.369721 255 0 0
-0.965645 0.001976 0.245090 0 0 255
-0.823521 -0.001739 0.185263 0 0 255
0.062016 0.017966 -0.128241 255 0 0
0.533221 -0.020463 -0.330805 255 0 0
0.118660 -0.020463 -0.141645 255 0 0
0.133206 0.019060 0.376981 127 127 0
0.420361 0.019060 0.453116 127 127 0
0.014541 0.019060 0.306988 127 127 0
0.027548 0.019060 0.176456 127 127 0
-0.337198 -0.003351 -0.061506 0 255 0
-0.467682 -0.001463 -0.001472 0 255 0
-0.637719 -0.012515 -0.129419 0 255 0
-0.752056 -0.019634 -0.136980 0 255 0
-0.330209 0.016929 0.065905 0 0 255
-0.165616 -0.000934 0.108226 0 255 0
0.051552 -0.019369 0.150212 127 127 0
0.238512 0.019060 0.436214 127 127 0
0.200358 -0.019369 0.429419 127 127 0
-0.296979 0.018002 -0.040090 0 0 255
-0.255224 0.024947 0.024247 76 0 153
-0.341520 0.010457 -0.038516 0 0 255
0.300304 0.017966 -0.177588 255 0 0
-0.473418 -0.003706 -0.092286 0 255 0
0.030612 -0.020463 -0.079808 255 0 0
0.297748 0.017966 -0.148549 255 0 0
0.366679 -0.006823 -0.213516 255 0 0
0.338455 -0.008219 0.247978 127 127 0
-0.239673 0.016886 0.067064 0 0 255
-0.016749 -0.007766 -0.228994 255 0 0
0.463551 0.001248 -0.185326 255 0 0
-0.024809 0.019060 0.155513 127 127 0
0.282440 0.017966 -0.146942 255 0 0
0.519100 0.017966 -0.337687 255 0 0
-0.781732 -0.014962 -0.140952 0 255 0
-0.010516 -0.018355 -0.238366 255 0 0
-0.657688 -0.000392 -0.111011 0 255 0
-0.282758 0.032935 -0.015499 76 0 153
-0.185826 0.018674 0.050564 0 0 255
-0.280539 0.024947 0.034373 76 0 153
-0.041507 -0.019369 0.105689 127 127 0
-0.643357 -0.009486 -0.091925 0 255 0
-0.429551 -0.015820 -0.039277 0 255 0
-0.350074 -0.001470 -0.050225 0 255 0
-0.244214 -0.018943 0.074163 0 255 0
-0.829344 -0.000506 -0.164902 0 255 0
-0.870167 0.018740 0.219350 0 0 255
-0.907285 -0.007828 -0.170261 0 255 0
-0.349991 0.011124 0.106564 0 0 255
-0.110369 0.018435 -0.007127 255 0 0
0.171118 -0.009360 -0.325507 255 0 0
0.201466 -0.004963 0.144687 127 127 0
-0.033078 -0.020463 -0.182747 255 0 0
-0.007670 -0.020463 -0.160938 255 0 0
0.122277 -0.009930 -0.287670 255 0 0
0.506975 0.017966 -0.241909 255 0 0
0.479077 -0.019369 0.403149 127 127 0
-0.164125 -0.006967 -0.021771 0 255 0
-0.241484 0.032935 0.024707 76 0 153
-0.063451 -0.004929 0.177825 127 127 0
-0.560515 0.015416 0.123811 0 0 255
-0.759176 -0.000485 -0.114693 0 255 0
-0.043321 0.006993 -0.057371 255 0 0
-0.659269 -0.001739 0.138239 0 0 255
-0.043285 0.017966 -0.086252 255 0 0
0.124143 0.009919 -0.289870 255 0 0
-0.088571 0.016631 -0.035515 255 0 0
-0.128754 0.000316 -0.038810 255 0 0
-0.303091 -0.020129 -0.043570 0 255 0
0.455064 0.008199 0.458723 127 127 0
-0.779451 0.001932 0.162880 0 0 255
-0.059578 0.006462 -0.147370 255 0 0
0.127849 0.019060 0.168152 127 127 0
0.302007 -0.020463 -0.417048 255 0 0
0.026282 -0.020463 -0.167321 255 0 0
0.107044 0.006070 -0.263278 255 0 0
0.187187 -0.020463 -0.157422 255 0 0
0.107229 0.017966 -0.102653 255 0 0
-0.237290 -0.000504 0.034132 0 255 0
-0.703451 0.003004 0.165392 0 0 255
-0.329682 -0.000778 -0.033550 0 255 0
0.456871 -0.020463 -0.411241 255 0 0
-0.488655 -0.011162 -0.045271 0 255 0
0.216832 0.017966 -0.369164 255 0 0
-0.332969 0.013232 0.098247 0 0 255
0.221140 0.001419 -0.172958 255 0 0
0.049346 0.006828 0.350626 127 127 0
0.001140 0.003567 0.295690 127 127 0
-0.734507 -0.019058 -0.151021 0 255 0
0.255209 -0.002514 -0.368534 255 0 0
0.220550 0.017966 -0.110755 255 0 0
-0.582789 0.016894 0.132967 0 0 255
0.467488 -0.019369 0.412816 127 127 0
0.289140 -0.020463 -0.390512 255 0 0
-0.921068 0.011297 0.235732 0 0 255
0.555285 0.000756 -0.292539 255 0 0
-0.457355 -0.012874 -0.040407 0 255 0
0.178740 0.014005 -0.330922 255 0 0
-0.336595 -0.001470 0.043143 0 255 0
-0.392645 -0.001739 0.051890 0 0 255
-0.516425 -0.010563 -0.050994 0 255 0
-0.228971 -0.020129 0.029827 0 255 0
-0.272427 -0.026350 0.047241 76 0 153
0.282903 -0.020463 -0.137248 255 0 0
0.093211 -0.020463 -0.309794 255 0 0
0.220419 0.008203 0.460070 127 127 0
0.462141 0.017966 -0.219734 255 0 0
-0.045852 -0.019369 0.164414 127 127 0
-0.003633 0.017966 -0.054823 255 0 0
0.137528 -0.020463 -0.342578 255 0 0
0.473869 -0.001066 0.449650 127 127 0
0.390325 0.019060 0.436085 127 127 0
0.474466 -0.005897 0.231070 127 127 0
0.521063 0.017966 -0.223424 255 0 0
-0.692348 -0.002809 -0.141727 0 255 0
0.487070 0.019060 0.386601 127 127 0
0.097487 -0.005798 0.239840 127 127 0
0.107692 -0.008780 -0.157763 255 0 0
-0.224809 0.019003 0.038419 0 0 255
0.376674 -0.020463 -0.398196 255 0 0
-0.288000 -0.026350 0.042817 76 0 153
0.451611 0.002602 0.223838 127 127 0
-0.676041 -0.016303 -0.138075 0 255 0
-0.603428 -0.000934 -0.079422 0 255 0
-0.154726 0.019003 -0.046644 0 0 255
0.414153 -0.013323 0.211986 127 127 0
0.089810 0.019060 0.356846 127 127 0
0.376905 0.019060 0.461658 127 127 0
-0.545960 0.000015 0.131017 0 0 255
0.502919 -0.006491 0.298562 127 127 0
0.435834 -0.020463 -0.411684 255 0 0
0.110163 -0.020463 -0.110674 255 0 0
0.439899 -0.019369 0.458594 127 127 0
0.300194 0.013770 -0.133635 255 0 0
-0.023958 -0.008111 -0.031064 255 0 0
-0.368123 0.000625 0.010417 0 0 255
0.510105 0.019060 0.416620 127 127 0
0.022007 -0.019369 0.203012 127 127 0
0.028654 0.019060 0.235649 127 127 0
0.005424 0.019060 0.218829 127 127 0
-0.853831 0.006491 0.196026 0 0 255
0.524802 -0.000745 -0.372019 255 0 0
0.311904 -0.020463 -0.197356 255 0 0
0.065818 -0.019369 0.261570 127 127 0
0.173909 -0.020463 -0.098563 255 0 0
-0.632599 0.003798 0.170767 0 0 255
-0.559615 -0.018916 -0.090304 0 255 0
-0.083157 -0.020129 0.132979 127 127 0
0.126153 -0.019369 0.336558 127 127 0
0.479217 -0.020463 -0.390749 255 0 0
0.372899 0.017966 -0.413576 255 0 0
-0.975452 -0.001733 0.232368 0 0 255
-0.157923 -0.001470 0.008828 0 255 0
0.159928 0.019060 0.176556 127 127 0
-0.422897 -0.001739 0.081881 0 0 255
-0.114978 -0.001739 -0.063667 255 0 0
-0.128925 -0.001739 -0.010653 255 0 0
-0.242627 -0.001470 0.084778 0 255 0
0.392350 -0.006465 0.479419 127 127 0
0.539734 -0.019369 0.334014 127 127 0
-0.327669 -0.001470 0.059592 0 255 0
-0.048504 -0.003388 -0.073322 255 0 0
0.224273 0.019060 0.171996 127 127 0
0.001249 -0.019369 0.278459 127 127 0
-0.154257 0.016929 -0.019081 0 0 255
-0.224323 0.006061 0.076247 0 0 255
0.242383 -0.020463 -0.413612 255 0 0
0.519006 -0.020463 -0.231875 255 0 0
0.534950 0.014256 0.401821 127 127 0
0.529994 -0.004999 0.409130 127 127 0
0.435043 0.017966 -0.421205 255 0 0
0.145855 -0.005759 -0.084798 255 0 0
-0.894942 -0.002205 -0.154548 0 255 0
-0.345876 -0.015535 -0.063489 0 255 0
-0.564218 -0.002965 -0.040441 0 255 0
0.247100 0.013413 -0.365676 255 0 0
-0.678736 -0.015490 -0.113484 0 255 0
-0.471254 -0.000304 -0.064469 0 255 0
-0.343636 0.016929 0.059825 0 0 255
-0.709037 -0.001255 -0.086133 0 255 0
0.101668 0.004503 0.289597 127 127 0
-0.319939 -0.019495 0.008223 0 255 0
-0.384317 -0.000591 -0.042857 0 255 0
-0.765012 -0.001470 -0.139055 0 255 0
-0.228545 -0.020129 0.076405 0 255 0
-0.137580 -0.019279 0.063517 0 255 0
0.035891 -0.020463 -0.243881 255 0 0
0.227052 0.017966 -0.157623 255 0 0
-0.292831 -0.003768 -0.051480 0 255 0
-0.249665 -0.020129 -0.025729 0 255 0
-0.200115 0.004792 -0.075832 0 0 255
0.158944 0.019060 0.415725 127 127 0
-0.875929 -0.000635 -0.173049 0 255 0
-0.265593 -0.001470 0.067505 0 255 0
0.352951 -0.005273 -0.441638 255 0 0
-0.193141 -0.000603 0.052539 0 255 0
-0.497227 0.000361 0.138783 0 0 255
-0.279866 0.032935 -0.001567 76 0 153
-0.211440 -0.019610 -0.021752 0 255 0
0.394488 -0.002289 0.431170 127 127 0
0.090717 0.017966 -0.344516 255 0 0
0.348697 -0.020463 -0.164313 255 0 0
-0.946247 -0.006920 -0.179327 0 255 0
-0.790242 0.011797 0.206480 0 0 255
0.255904 0.019060 0.415839 127 127 0
0.454985 0.019060 0.277814 127 127 0
0.023823 -0.020463 -0.129180 255 0 0
0.040614 0.017966 -0.106233 255 0 0
0.280918 -0.013855 0.231944 127 127 0
-0.593415 -0.000009 0.145906 0 0 255
-0.012843 0.019060 0.086463 127 127 0
0.117634 -0.020463 -0.075948 255 0 0
0.039780 0.017259 0.093525 127 127 0
-0.346655 -0.001470 0.027803 0 255 0
-0.258122 -0.016181 -0.007954 76 0 153
0.513704 0.019060 0.372158 127 127 0
-0.515339 0.000047 0.124931 0 0 255
-0.064777 -0.020129 0.088278 127 127 0
0.154481 0.019060 0.158599 127 127 0
-0.167417 -0.001739 -0.038297 255 0 0
0.177708 0.017966 -0.151536 255 0 0
-0.082315 -0.000930 0.142160 127 127 0
0.412312 -0.020463 -0.186449 255 0 0
0.359105 -0.019369 0.209024 127 127 0
0.107416 -0.020463 -0.130536 255 0 0
-0.108152 -0.000671 0.141005 127 127 0
-0.185282 0.016929 -0.007313 0 0 255
-0.054918 0.016944 -0.053496 255 0 0
0.492575 -0.020463 -0.241074 255 0 0
-0.239896 -0.029829 0.024055 76 0 153
0.071365 -0.020463 -0.192293 255 0 0
0.118048 0.016024 -0.149980 255 0 0
0.134655 -0.019369 0.141271 127 127 0
-0.769966 0.018733 0.189867 0 0 255
-0.006366 0.019060 0.132808 127 127 0
0.049250 -0.019369 0.310285 127 127 0
0.067140 0.019060 0.150310 127 127 0
0.263469 -0.016691 -0.431279 255 0 0
0.346265 0.019060 0.433778 127 127 0
-0.664977 0.014086 0.151048 0 0 255
-0.924468 -0.001673 -0.163357 0 255 0
0.279708 0.000856 0.418534 127 127 0
0.146422 0.017966 -0.365701 255 0 0
0.063522 -0.019369 0.286184 127 127 0
-0.451094 0.002735 0.129073 0 0 255
-0.370749 -0.001470 -0.017395 0 255 0
0.172880 -0.019369 0.382313 127 127 0
0.523236 0.019060 0.298753 127 127 0
0.060257 -0.020463 -0.082292 255 0 0
0.437411 -0.020463 -0.231991 255 0 0
-0.116713 0.019003 -0.043520 255 0 0
0.137534 -0.019369 0.170814 127 127 0
0.050231 -0.019369 0.205906 127 127 0
-0.497660 -0.020115 -0.070249 0 255 0
-0.737720 -0.001201 -0.096236 0 255 0
-0.168392 -0.019214 0.010060 0 255 0
-0.105685 -0.020129 0.090327 127 127 0
-0.436658 -0.005833 -0.005730 0 255 0
-0.531764 0.001945 0.146624 0 0 255
-0.299869 -0.009149 0.046726 76 0 153
-0.859161 0.009088 0.221733 0 0 255
0.164930 -0.019369 0.163479 127 127 0
0.042338 0.004948 -0.052042 255 0 0
-0.365762 -0.020129 -0.036644 0 255 0
0.426425 0.017966 -0.392347 255 0 0
-0.063277 -0.015378 -0.138101 255 0 0
0.160408 -0.020463 -0.143819 255 0 0
-0.598882 0.011348 0.163261 0 0 255
-0.458393 -0.020129 -0.069146 0 255 0
-0.004391 0.019060 0.166181 127 127 0
0.437281 0.017966 -0.198987 255 0 0
0.478828 0.017966 -0.399740 255 0 0
0.379009 0.019060 0.233919 127 127 0
0.012652 -0.000252 -0.042649 255 0 0
-0.152063 -0.019609 0.115027 0 255 0
0.369667 -0.019369 0.433360 127 127 0
0.254344 0.017966 -0.413821 255 0 0
0.093250 -0.019369 0.297641 127 127 0
-0.903915 0.017671 0.221568 0 0 255
0.346304 -0.020463 -0.423347 255 0 0
-0.051937 -0.000147 -0.041349 255 0 0
-0.612457 0.011560 0.132412 0 0 255
0.135960 -0.019369 0.354725 127 127 0
-0.655882 -0.001739 0.123677 0 0 255
0.418455 0.017966 -0.225628 255 0 0
0.083798 -0.019369 0.185615 127 127 0
-0.169585 0.018669 0.025239 0 0 255
0.318865 -0.019369 0.229129 127 127 0
-0.342960 -0.020129 0.065710 0 255 0
-0.559183 -0.001739 0.141381 0 0 255
0.193706 -0.011093 -0.165313 255 0 0
0.483003 -0.019369 0.436301 127 127 0
-0.056025 -0.013225 -0.096468 255 0 0
-0.841838 0.017693 0.205233 0 0 255
-0.492586 -0.018579 -0.096491 0 255 0
0.216197 -0.019369 0.432916 127 127 0
0.158924 0.017966 -0.140119 255 0 0
0.275144 -0.000239 -0.433955 255 0 0
0.145031 -0.017829 -0.381132 255 0 0
-0.260239 0.019003 -0.020911 0 0 255
0.428428 -0.020463 -0.425254 255 0 0
-0.257546 0.018340 0.050115 0 0 255
0.454951 -0.020463 -0.219441 255 0 0
-0.830113 -0.008088 -0.150176 0 255 0
-0.210328 -0.020129 0.049929 0 255 0
-0.275653 0.032935 0.046720 76 0 153
-0.145901 -0.000514 0.067181 0 255 0
-0.720106 0.012831 0.165633 0 0 255
-0.278474 -0.000934 -0.034706 0 255 0
0.019890 -0.020463 -0.115940 255 0 0
0.389533 0.017677 0.262212 127 127 0
0.041478 -0.009735 -0.051770 255 0 0
0.373662 0.017966 -0.169405 255 0 0
0.028576 0.017966 -0.136492 255 0 0
-0.431566 -0.020127 -0.053604 0 255 0
0.472795 0.004162 0.285416 127 127 0
0.485602 0.019060 0.282756 127 127 0
-0.318234 -0.018609 0.070416 0 255 0
0.114820 0.017966 -0.078971 255 0 0
-0.027448 -0.019369 0.235658 127 127 0
-0.620996 -0.000286 -0.101126 0 255 0
0.159758 -0.000997 -0.155852 255 0 0
0.266445 0.019060 0.462653 127 127 0
0.221684 -0.019369 0.447248 127 127 0
0.485589 0.005343 -0.400041 255 0 0
-0.167155 -0.001735 -0.075251 255 0 0
-0.129902 -0.001470 0.045799 0 255 0
-0.480451 -0.015522 -0.056181 0 255 0
-0.209004 -0.000835 -0.029192 0 255 0
-0.025311 -0.020463 -0.120380 255 0 0
0.440548 -0.019369 0.431032 127 127 0
0.125151 -0.016188 0.120539 127 127 0
0.463845 0.010176 0.409184 127 127 0
-0.424613 -0.001694 0.118353 0 0 255
-0.053202 0.017966 -0.108290 255 0 0
-0.095200 -0.001470 0.119580 127 127 0
0.077024 -0.020463 -0.263531 255 0 0
0.549734 -0.016562 -0.256313 255 0 0
-0.601791 0.006514 0.112873 0 0 255
0.117875 0.000184 0.323048 127 127 0
0.340530 0.017966 -0.419613 255 0 0
0.059948 -0.019369 0.216938 127 127 0
0.088168 -0.020463 -0.280600 255 0 0
0.142181 -0.020463 -0.150853 255 0 0
-0.285476 0.005482 0.091978 0 0 255
-0.709818 -0.020129 -0.138630 0 255 0
0.552728 -0.020463 -0.307023 255 0 0
-0.462089 0.000914 0.082091 0 0 255
-0.004388 0.017966 -0.179586 255 0 0
0.305143 -0.019369 0.460750 127 127 0
-0.212331 -0.012189 0.113823 0 255 0
0.041740 0.017966 -0.273829 255 0 0
0.501547 -0.016053 -0.390110 255 0 0
0.342382 0.019060 0.232680 127 127 0
0.504783 -0.020463 -0.213129 255 0 0
0.492772 0.019060 0.246011 127 127 0
-0.232639 -0.009945 -0.037907 0 255 0
-0.186398 -0.001470 0.022603 0 255 0
0.091834 0.019060 0.113024 127 127 0
0.005377 0.017966 -0.073869 255 0 0
0.078478 -0.020463 -0.096982 255 0 0
-0.160478 -0.020129 0.061467 0 255 0
-0.746287 -0.002352 -0.153849 0 255 0
0.507212 0.017151 -0.299327 255 0 0
0.349621 -0.019369 0.234677 127 127 0
-0.898975 -0.000781 0.196199 0 0 255
0.261406 -0.019369 0.420358 127 127 0
0.151258 0.019060 0.131235 127 127 0
-0.693254 0.005319 0.142228 0 0 255
-0.986066 -0.001350 -0.198854 0 255 0
0.348528 0.002271 0.250785 127 127 0
-0.143159 -0.001726 -0.013174 255 0 0
-0.412596 -0.012659 -0.023855 0 255 0
0.484410 0.017966 -0.372426 255 0 0
-0.145152 -0.001732 -0.083211 255 0 0
-0.171116 -0.001470 0.056959 0 255 0
0.250883 0.019060 0.213445 127 127 0
-0.684837 -0.003823 -0.094837 0 255 0
0.148437 0.017966 -0.332261 255 0 0
-0.398634 0.016979 0.116636 0 0 255
0.306390 0.007818 -0.196715 255 0 0
-0.248044 0.011319 0.040712 76 0 153
-0.817750 0.008017 0.212737 0 0 255
-0.220174 0.019003 -0.003016 0 0 255
-0.625371 0.008192 0.127288 0 0 255
0.279929 -0.010553 -0.127223 255 0 0
-0.104357 -0.020129 0.114005 127 127 0
-0.244726 0.015477 -0.063492 0 0 255
0.169125 0.002377 -0.394043 255 0 0
0.448989 -0.020463 -0.378310 255 0 0
0.289693 0.017966 -0.434774 255 0 0
-0.143207 -0.014395 0.131508 0 255 0
-0.295475 0.000066 0.060835 0 255 0
-0.050411 -0.012542 0.209319 127 127 0
-0.361196 0.011140 -0.018682 0 0 255
0.535443 -0.019369 0.314479 127 127 0
-0.209498 -0.000934 -0.015606 0 255 0
-0.179401 -0.001739 -0.050407 0 0 255
0.209197 -0.019369 0.149995 127 127 0
-0.934684 0.011168 0.222512 0 0 255
0.124890 0.016297 0.120456 127 127 0
0.321186 -0.005458 -0.384788 255 0 0
0.430859 0.016036 -0.174981 255 0 0
0.439739 0.019060 0.255236 127 127 0
0.108359 -0.019369 0.356978 127 127 0
-0.163717 -0.001470 0.031098 0 255 0
0.298254 0.019060 0.179314 127 127 0
0.387211 0.017966 -0.182690 255 0 0
0.185305 0.019060 0.377812 127 127 0
0.489262 0.017966 -0.351277 255 0 0
-0.660392 -0.000509 -0.083098 0 255 0
0.013373 -0.019369 0.141547 127 127 0
-0.527492 -0.000934 -0.065443 0 255 0
0.020278 0.019060 0.214572 127 127 0
-0.718592 -0.005643 -0.147688 0 255 0
0.303058 0.001462 -0.438738 255 0 0
-0.035941 0.017616 -0.034656 255 0 0
-0.487691 0.018905 0.130269 0 0 255
0.397712 -0.020463 -0.183382 255 0 0
0.413022 -0.010146 -0.226431 255 0 0
-0.399384 -0.000681 0.104371 0 0 255
0.089799 -0.019369 0.222438 127 127 0
-0.042490 -0.001322 0.100298 127 127 0
-0.423337 -0.001470 -0.012201 0 255 0
-0.017403 0.019060 0.242292 127 127 0
0.375586 0.008533 -0.215998 255 0 0
0.319568 0.019060 0.197214 127 127 0
0.164116 0.006455 0.199394 127 127 0
-0.103636 -0.020129 0.065351 127 127 0
-0.021237 0.017966 -0.078625 255 0 0
0.356038 0.003376 -0.387353 255 0 0
0.201494 0.019060 0.157787 127 127 0
0.249685 0.017966 -0.163493 255 0 0
-0.018142 0.019060 0.167172 127 127 0
-0.235480 -0.018636 0.045551 0 255 0
-0.289802 -0.001470 -0.007116 0 255 0
0.462402 -0.020463 -0.204429 255 0 0
0.405514 0.016329 -0.433363 255 0 0
0.555690 -0.016698 0.341897 127 127 0
0.080459 -0.019369 0.261504 127 127 0
0.288895 -0.020463 -0.424789 255 0 0
0.100387 -0.014659 -0.352163 255 0 0
0.151411 0.011104 -0.153526 255 0 0
0.234554 0.019060 0.180574 127 127 0
-0.614286 -0.001262 0.163078 0 0 255
0.480773 -0.020463 -0.232143 255 0 0
0.439732 0.017966 -0.382467 255 0 0
0.533610 0.019060 0.327401 127 127 0
0.112716 -0.020463 -0.349487 255 0 0
-0.657021 -0.020129 -0.117586 0 255 0
0.312649 -0.009846 0.482251 127 127 0
-0.019074 0.019060 0.140506 127 127 0
-0.586615 -0.001470 -0.086080 0 255 0
-0.264800 -0.000934 -0.022557 0 255 0
0.095515 -0.012891 -0.215265 255 0 0
-0.002964 0.019060 0.246339 127 127 0
0.029019 0.019060 0.125424 127 127 0
