ply
format ascii 1.0
element vertex 1287
property float x
property float y
property float z
property uchar red
property uchar green
property uchar blue
end_header
0.301568 -0.008643 -0.195371 255 0 0
0.321896 -0.016679 0.182793 127 127 0
0.235069 0.006111 0.155319 127 127 0
-0.793523 -0.000934 -0.116981 0 255 0
0.032165 0.003870 -0.291342 255 0 0
-0.717527 0.011001 0.189043 0 0 255
0.086096 -0.007177 0.108181 127 127 0
-0.712385 -0.019369 -0.133601 0 255 0
-0.518463 -0.000702 0.133644 0 0 255
-0.499179 0.001651 0.062927 0 0 255
-0.179781 -0.019369 0.044376 0 255 0
0.096261 0.006725 -0.224282 255 0 0
-0.392064 0.012065 0.062675 0 0 255
-0.512487 -0.013349 -0.062518 0 255 0
-0.617900 -0.000702 -0.101856 0 255 0
-0.635688 -0.000702 -0.088001 0 255 0
-0.095362 -0.000702 0.100843 127 127 0
-0.252243 -0.000702 -0.019576 0 255 0
0.113911 -0.007380 -0.275900 255 0 0
-0.141974 -0.019369 0.075767 0 255 0
0.114927 -0.015271 0.194740 127 127 0
-0.923270 -0.000702 -0.185349 0 255 0
-0.301547 -0.019369 -0.052309 0 255 0
0.334090 0.019060 0.455631 127 127 0
0.539509 -0.002210 -0.349596 255 0 0
0.158880 -0.019369 0.421374 127 127 0
0.209546 0.019060 0.199825 127 127 0
0.515577 -0.019369 0.248255 127 127 0
-0.539738 -0.000702 -0.082394 0 255 0
0.002142 -0.020463 -0.128734 255 0 0
-0.339676 -0.019369 0.001284 0 255 0
-0.645042 -0.011982 -0.130289 0 255 0
0.092038 -0.020463 -0.345494 255 0 0
0.076685 0.019060 0.107814 127 127 0
0.430865 -0.020463 -0.418395 255 0 0
0.207759 -0.019369 0.394677 127 127 0
-0.742745 -0.008609 -0.152362 0 255 0
-0.243411 -0.006246 0.032264 76 0 153
-0.059074 0.017966 -0.092111 255 0 0
-0.008577 -0.019369 0.196221 127 127 0
0.024638 -0.020463 -0.120272 255 0 0
-0.441164 -0.000702 -0.031230 0 255 0
0.389631 -0.020463 -0.398877 255 0 0
0.083030 0.017966 -0.189734 255 0 0
0.025071 -0.019369 0.200759 127 127 0
0.336507 -0.019369 0.200714 127 127 0
-0.047243 -0.014117 -0.069442 255 0 0
0.484114 -0.019369 0.271475 127 127 0
0.482399 -0.020463 -0.222611 255 0 0
-0.223196 -0.000702 0.087135 0 255 0
0.435538 -0.019369 0.453070 127 127 0
0.045494 0.019060 0.325525 127 127 0
0.007811 -0.019369 0.119091 127 127 0
-0.684198 0.007631 0.181514 0 0 255
-0.018915 -0.009018 0.266674 127 127 0
0.300517 -0.020463 -0.425724 255 0 0
-0.581870 -0.000702 0.114859 0 0 255
0.213576 0.001548 0.148518 127 127 0
0.174814 0.013558 -0.093961 255 0 0
0.134792 -0.012949 0.341605 127 127 0
0.367895 0.017966 -0.404818 255 0 0
0.035322 0.019060 0.273080 127 127 0
0.151349 -0.006419 0.353369 127 127 0
0.506102 0.010379 0.350401 127 127 0
0.079216 -0.020463 -0.211429 255 0 0
0.159156 0.019060 0.359939 127 127 0
0.133855 -0.020463 -0.091209 255 0 0
-0.647029 0.017966 0.156640 0 0 255
-0.354620 -0.000702 -0.010412 0 255 0
0.358037 -0.019369 0.440982 127 127 0
-0.443448 0.003015 0.048163 0 0 255
-0.163134 0.017966 -0.059846 0 0 255
0.127528 0.009360 -0.293865 255 0 0
0.016783 -0.020463 -0.142334 255 0 0
0.106212 0.017966 -0.138749 255 0 0
0.014928 0.009437 0.313124 127 127 0
-0.011481 0.019060 0.116337 127 127 0
0.451806 0.012846 -0.417158 255 0 0
-0.003672 -0.020463 -0.246184 255 0 0
-0.040205 -0.009709 -0.047782 255 0 0
0.419732 -0.020463 -0.207839 255 0 0
-0.505006 0.015271 0.141032 0 0 255
0.276682 -0.020463 -0.423211 255 0 0
-0.390458 -0.000702 -0.070384 0 255 0
0.224457 -0.019369 0.154494 127 127 0
-0.204271 -0.000702 0.017934 0 255 0
-0.402645 -0.000702 0.064884 0 0 255
0.289057 0.017966 -0.409416 255 0 0
0.333967 0.017966 -0.421307 255 0 0
-0.583224 -0.010323 -0.076585 0 255 0
-0.241915 -0.019369 0.059717 0 255 0
0.370187 -0.007154 0.483578 127 127 0
-0.263654 -0.021585 0.056622 76 0 153
0.328544 0.006934 0.184897 127 127 0
0.483646 -0.007576 0.390125 127 127 0
0.036778 -0.020463 -0.054311 255 0 0
-0.041187 -0.006451 0.096397 127 127 0
0.355876 0.006437 0.429915 127 127 0
-0.239978 0.017966 -0.032970 0 0 255
-0.301213 -0.000331 0.048124 0 255 0
0.411158 0.017966 -0.200344 255 0 0
0.055173 0.019060 0.111260 127 127 0
0.526468 -0.020463 -0.359024 255 0 0
0.441378 -0.019369 0.234067 127 127 0
0.311281 0.019060 0.190029 127 127 0
0.526622 0.019060 0.363072 127 127 0
-0.163302 -0.000702 -0.011836 0 255 0
-0.379553 -0.004721 0.015562 0 255 0
-0.056326 -0.009443 0.195676 127 127 0
-0.695401 0.010081 0.158254 0 0 255
0.105697 -0.019369 0.363648 127 127 0
-0.010175 -0.019369 0.148920 127 127 0
-0.094174 0.017966 -0.065623 255 0 0
0.106171 0.007214 0.302152 127 127 0
0.243479 -0.019369 0.167181 127 127 0
-0.837625 0.014104 0.216175 0 0 255
0.340436 -0.014520 0.429413 127 127 0
0.461528 -0.019369 0.278659 127 127 0
0.387469 0.019060 0.215240 127 127 0
0.034214 0.019060 0.218070 127 127 0
-0.515046 0.015523 0.113607 0 0 255
0.362260 -0.019369 0.196095 127 127 0
-0.966680 -0.013097 -0.202629 0 255 0
0.092839 -0.019369 0.133869 127 127 0
0.168825 0.017966 -0.362017 255 0 0
0.075402 -0.019369 0.222633 127 127 0
-0.412828 0.017966 0.098600 0 0 255
-0.241703 -0.022488 0.012705 0 255 0
-0.311473 -0.019369 -0.004067 0 255 0
-0.992064 -0.000702 0.238409 0 0 255
0.100397 -0.019369 0.144509 127 127 0
-0.445572 0.010133 0.074600 0 0 255
-0.259912 0.008862 0.085662 0 0 255
-0.252785 -0.033045 -0.004150 76 0 153
-0.124408 -0.000702 -0.085081 255 0 0
-0.735630 -0.019369 -0.136367 0 255 0
-0.089713 0.017966 -0.052674 255 0 0
-0.348091 0.017966 -0.019084 0 0 255
0.321340 0.005539 -0.440580 255 0 0
-0.510037 -0.000702 -0.048640 0 255 0
-0.789009 -0.000081 0.159041 0 0 255
-0.271365 0.032935 0.012394 76 0 153
0.337032 0.006204 -0.386735 255 0 0
0.390714 -0.020463 -0.167029 255 0 0
0.359105 0.017966 -0.182114 255 0 0
-0.539964 -0.000702 -0.066534 0 255 0
0.275266 -0.019369 0.217844 127 127 0
0.368334 -0.009051 0.197487 127 127 0
0.231400 0.019060 0.182201 127 127 0
0.493857 0.005001 0.375255 127 127 0
0.009812 0.017966 -0.117274 255 0 0
-0.761011 -0.008679 -0.156488 0 255 0
-0.821158 -0.010679 -0.170076 0 255 0
-0.068788 -0.000702 0.108820 127 127 0
-0.020552 -0.020463 -0.168243 255 0 0
-0.023782 0.007296 0.073412 127 127 0
0.282385 0.011236 0.232352 127 127 0
-0.130760 -0.000702 0.033369 0 255 0
-0.634376 -0.000702 -0.068250 0 255 0
0.032251 0.017966 -0.190825 255 0 0
0.176173 0.002466 -0.397604 255 0 0
-0.529598 0.010749 0.106498 0 0 255
-0.229084 -0.000702 0.039030 0 255 0
0.483407 0.019060 0.288155 127 127 0
-0.541792 0.002021 0.079314 0 0 255
-0.044918 0.006870 0.220710 127 127 0
0.348734 -0.020463 -0.438316 255 0 0
-0.029551 0.019060 0.229666 127 127 0
0.309319 -0.016959 -0.136523 255 0 0
-0.169509 0.017966 -0.070224 255 0 0
0.234830 0.017966 -0.138192 255 0 0
0.079816 -0.019369 0.206259 127 127 0
0.036518 -0.019369 0.139012 127 127 0
-0.239799 -0.000702 0.052916 0 255 0
0.133646 0.019060 0.405478 127 127 0
-0.331033 0.008759 -0.040254 0 0 255
0.408426 -0.019369 0.443890 127 127 0
0.290627 -0.020213 -0.436855 255 0 0
0.056766 -0.020463 -0.142468 255 0 0
0.351105 0.001910 0.192036 127 127 0
0.169385 -0.020463 -0.325919 255 0 0
0.026406 -0.019369 0.222343 127 127 0
-0.934696 0.013622 0.238105 0 0 255
0.441176 -0.011717 0.276604 127 127 0
0.245272 0.017966 -0.178967 255 0 0
0.120312 0.017966 -0.315613 255 0 0
-0.134322 -0.019369 0.065147 0 255 0
-0.239113 0.017966 -0.007901 0 0 255
0.254664 -0.020463 -0.426867 255 0 0
0.428147 0.006117 0.272973 127 127 0
0.124692 0.019060 0.373970 127 127 0
0.446688 -0.007604 0.222281 127 127 0
-0.576445 0.009994 0.120323 0 0 255
-0.275849 -0.019369 0.083715 0 255 0
-0.185899 -0.000702 0.120627 0 255 0
-0.240894 0.020503 0.030781 76 0 153
0.402781 -0.020463 -0.421723 255 0 0
0.014239 -0.020463 -0.051889 255 0 0
0.056499 -0.020463 -0.161504 255 0 0
-0.708928 -0.000702 -0.087616 0 255 0
-0.087838 -0.000702 0.078721 127 127 0
0.284834 0.005619 -0.435873 255 0 0
-0.007466 -0.020463 -0.149996 255 0 0
-0.406614 0.004364 0.040023 0 0 255
0.222584 0.008353 -0.355247 255 0 0
0.054143 0.019060 0.148135 127 127 0
0.262643 -0.019369 0.197917 127 127 0
-0.261175 0.024947 -0.005633 76 0 153
-0.222783 -0.019369 -0.013591 0 255 0
-0.865900 -0.000702 -0.170919 0 255 0
0.015347 0.017966 -0.101540 255 0 0
-0.627988 -0.000702 -0.111027 0 255 0
0.067328 0.005438 -0.059950 255 0 0
0.538132 0.017238 -0.352252 255 0 0
-0.310891 -0.033721 0.029440 76 0 153
0.468435 0.017966 -0.377943 255 0 0
0.207966 0.011705 -0.104452 255 0 0
0.406626 0.007196 -0.167313 255 0 0
0.393365 -0.019369 0.215382 127 127 0
0.002363 0.017966 -0.237759 255 0 0
-0.391171 -0.000702 0.027775 0 255 0
-0.023486 -0.020463 -0.188331 255 0 0
0.537756 0.005827 0.271161 127 127 0
-0.688783 -0.019369 -0.128563 0 255 0
0.405794 -0.002467 -0.433291 255 0 0
0.182138 0.017966 -0.352700 255 0 0
0.196796 0.017966 -0.371584 255 0 0
0.094204 0.019060 0.366959 127 127 0
0.059402 0.019060 0.335049 127 127 0
0.213985 0.019060 0.445348 127 127 0
0.062840 -0.012885 0.363578 127 127 0
0.358660 0.017966 -0.426996 255 0 0
0.476367 -0.020463 -0.404668 255 0 0
-0.025487 0.017966 -0.149151 255 0 0
-0.269529 0.006939 0.058340 76 0 153
0.048262 -0.020463 -0.289075 255 0 0
0.226153 -0.019369 0.409735 127 127 0
-0.517130 -0.008213 -0.101392 0 255 0
-0.027155 -0.020463 -0.097624 255 0 0
0.244896 -0.020463 -0.406968 255 0 0
0.270592 0.011363 -0.433026 255 0 0
0.498171 0.017966 -0.243362 255 0 0
0.287064 -0.020463 -0.390870 255 0 0
0.231278 0.017911 -0.175783 255 0 0
0.238286 0.017966 -0.372400 255 0 0
-0.044021 -0.019369 0.177913 127 127 0
-0.116902 -0.000702 0.103455 127 127 0
-0.312471 -0.000702 0.011787 76 0 153
-0.244215 -0.019369 0.093932 0 255 0
0.117173 -0.020463 -0.114448 255 0 0
0.447706 0.013452 -0.376430 255 0 0
0.066672 0.017966 -0.295131 255 0 0
-0.770042 -0.003776 -0.118940 0 255 0
0.176646 0.019060 0.145033 127 127 0
-0.676795 -0.000702 0.166549 0 0 255
-0.127379 -0.000702 -0.026707 255 0 0
0.450941 0.017966 -0.194309 255 0 0
-0.270340 -0.034338 0.017105 76 0 153
-0.068567 -0.000702 -0.096737 255 0 0
-0.108506 -0.000702 -0.042691 255 0 0
0.009545 -0.006370 -0.041666 255 0 0
-0.014392 0.017966 -0.182022 255 0 0
0.090159 0.019060 0.168943 127 127 0
0.201177 0.017966 -0.145082 255 0 0
-0.038976 0.017966 -0.169217 255 0 0
0.302943 -0.012106 0.176796 127 127 0
-0.134883 -0.019369 0.090019 0 255 0
0.263890 -0.020463 -0.146431 255 0 0
0.094147 0.018768 0.389323 127 127 0
-0.195846 -0.008278 -0.028810 0 255 0
-0.274179 0.017966 0.087015 0 0 255
0.083666 0.019060 0.319241 127 127 0
0.342758 0.013002 0.249177 127 127 0
0.040107 -0.019369 0.196577 127 127 0
0.217345 0.017966 -0.122434 255 0 0
-0.066263 -0.000702 -0.050856 255 0 0
-0.299762 -0.004656 0.090869 0 255 0
0.508365 -0.010310 0.340935 127 127 0
-0.406111 0.003728 0.118691 0 0 255
0.205218 -0.019369 0.420902 127 127 0
-0.723170 -0.000702 0.147125 0 0 255
0.434501 -0.019369 0.222624 127 127 0
0.461583 0.019060 0.419879 127 127 0
0.229835 -0.000707 -0.421295 255 0 0
0.501799 0.019060 0.394360 127 127 0
-0.656311 -0.002008 -0.072391 0 255 0
-0.049062 -0.000702 0.084678 127 127 0
0.387585 0.008293 0.430946 127 127 0
0.069123 0.017966 -0.198132 255 0 0
-0.341968 -0.000702 0.088791 0 0 255
0.348047 -0.004952 0.250651 127 127 0
0.027574 0.019060 0.262906 127 127 0
-0.323614 -0.019369 0.022650 0 255 0
-0.063474 -0.019369 0.166136 127 127 0
-0.369051 0.015722 0.042056 0 0 255
-0.116046 -0.000702 -0.060678 255 0 0
-0.059159 -0.020463 -0.129577 255 0 0
0.103058 -0.019369 0.113599 127 127 0
0.235918 0.019060 0.208154 127 127 0
0.012593 -0.019369 0.181628 127 127 0
0.156089 -0.016656 0.197157 127 127 0
0.387971 -0.020463 -0.413885 255 0 0
-0.079739 0.017966 -0.096719 255 0 0
0.484502 -0.019662 -0.246351 255 0 0
-0.020440 -0.019369 0.216385 127 127 0
0.024736 0.019060 0.304059 127 127 0
-0.873383 -0.000702 0.214941 0 0 255
-0.283110 0.017966 0.062783 0 0 255
-0.221349 0.016768 0.076951 0 0 255
-0.108648 0.017966 -0.043358 255 0 0
-0.667825 -0.004581 -0.135436 0 255 0
0.168397 0.004159 -0.091931 255 0 0
-0.051504 -0.004933 0.128147 127 127 0
0.439488 0.017966 -0.411195 255 0 0
0.551329 0.006614 -0.260903 255 0 0
-0.234302 -0.019369 -0.037402 0 255 0
-0.469693 -0.000702 0.074107 0 0 255
-0.145529 0.005891 0.048664 0 0 255
-0.222786 -0.019369 0.006982 0 255 0
-0.159943 0.017966 -0.012553 0 0 255
-0.157939 -0.019369 0.008410 0 255 0
-0.494469 -0.000702 0.082929 0 0 255
-0.268435 -0.024245 -0.011749 0 255 0
0.515374 -0.006460 -0.205844 255 0 0
0.341116 -0.019369 0.237516 127 127 0
-0.726792 -0.000702 -0.146489 0 255 0
-0.242025 0.006776 0.028351 76 0 153
0.063244 -0.019369 0.103949 127 127 0
-0.226071 -0.000702 0.072739 0 255 0
0.340915 0.006491 -0.206336 255 0 0
0.018362 0.016646 0.086748 127 127 0
0.449822 -0.012251 -0.180981 255 0 0
0.284113 0.019060 0.455552 127 127 0
-0.590997 0.008505 0.160459 0 0 255
0.012910 -0.019369 0.099530 127 127 0
-0.041843 -0.020463 -0.086832 255 0 0
0.040516 -0.020463 -0.085986 255 0 0
0.478631 -0.020463 -0.390143 255 0 0
0.217943 0.017966 -0.375134 255 0 0
-0.152806 -0.019369 0.052758 0 255 0
0.030265 0.017966 -0.082386 255 0 0
0.337635 -0.011197 0.247750 127 127 0
0.337092 0.007666 0.429305 127 127 0
0.545394 -0.019369 0.318288 127 127 0
0.180853 -0.008762 -0.161730 255 0 0
-0.917506 0.017966 0.225639 0 0 255
-0.181350 -0.000702 -0.048185 0 0 255
0.541950 -0.020463 -0.343528 255 0 0
0.041963 0.017966 -0.140577 255 0 0
0.530125 -0.013946 0.259181 127 127 0
-0.039710 0.016614 0.091850 127 127 0
0.000862 -0.020463 -0.159592 255 0 0
0.104410 -0.012706 0.397062 127 127 0
0.253474 -0.019369 0.422223 127 127 0
-0.709514 -0.005288 -0.144854 0 255 0
0.331420 -0.020463 -0.435762 255 0 0
0.310288 0.019060 0.230033 127 127 0
0.296070 0.019060 0.478274 127 127 0
0.540868 0.017966 -0.312903 255 0 0
-0.169457 -0.011402 0.125344 0 255 0
-0.284322 -0.034338 0.041553 76 0 153
-0.202351 -0.019369 0.008024 0 255 0
0.198458 -0.020463 -0.154379 255 0 0
-0.150130 0.008032 0.060861 0 0 255
-0.050439 -0.019369 0.098007 127 127 0
0.098137 -0.006631 0.235473 127 127 0
0.262037 0.010648 0.473288 127 127 0
0.097097 -0.020463 -0.103186 255 0 0
-0.110341 -0.000702 -0.018259 255 0 0
-0.351337 -0.019369 0.044297 0 255 0
-0.008989 -0.019369 0.126504 127 127 0
-0.320366 0.017966 0.012053 0 0 255
0.114416 0.019060 0.367179 127 127 0
0.097999 0.001470 -0.187253 255 0 0
-0.839491 -0.000702 -0.172161 0 255 0
-0.749116 -0.000702 -0.124810 0 255 0
-0.726479 0.004160 0.191066 0 0 255
0.530807 -0.008705 -0.363975 255 0 0
0.130624 -0.019798 -0.296736 255 0 0
0.145661 0.011042 0.423531 127 127 0
-0.309482 -0.025783 0.005548 76 0 153
-0.128173 -0.000702 -0.004861 0 0 255
0.485026 0.017966 -0.385300 255 0 0
0.398665 -0.006579 0.264757 127 127 0
0.547222 -0.005280 0.290043 127 127 0
-0.040646 0.019060 0.210725 127 127 0
0.012453 -0.020463 -0.203547 255 0 0
0.447116 -0.011022 -0.235932 255 0 0
0.015905 0.013491 -0.043679 255 0 0
-0.500350 -0.000702 -0.070291 0 255 0
0.305641 0.019060 0.180086 127 127 0
0.056581 0.019060 0.207464 127 127 0
-0.857997 0.002531 0.192831 0 0 255
-0.150445 0.017966 -0.034431 0 0 255
0.266955 0.019060 0.198655 127 127 0
0.464737 -0.019845 -0.240842 255 0 0
0.033053 0.019060 0.139926 127 127 0
0.428032 0.017966 -0.211028 255 0 0
-0.338676 -0.019369 -0.021778 0 255 0
0.003671 0.019060 0.090256 127 127 0
0.104048 -0.000036 -0.354923 255 0 0
-0.609357 -0.000702 0.157279 0 0 255
-0.368174 0.004625 0.022902 0 0 255
0.386856 -0.019333 0.203348 127 127 0
-0.464115 -0.009631 -0.032016 0 255 0
-0.178872 0.017966 0.059483 0 0 255
-0.158164 0.017966 0.007863 0 0 255
0.114976 -0.019369 0.345661 127 127 0
0.004714 -0.019369 0.253712 127 127 0
0.101452 0.017966 -0.170097 255 0 0
0.423063 0.019060 0.263291 127 127 0
-0.362194 0.017966 0.008686 0 0 255
-0.741294 -0.000702 0.158453 0 0 255
0.432217 0.010043 0.217702 127 127 0
0.143237 0.008255 0.347606 127 127 0
-0.400955 -0.000702 -0.017307 0 255 0
0.069581 -0.020463 -0.305145 255 0 0
0.353032 -0.019369 0.222244 127 127 0
-0.707540 -0.010426 -0.118394 0 255 0
-0.657865 0.017966 0.168504 0 0 255
0.236342 -0.020463 -0.368285 255 0 0
-0.725327 -0.004105 -0.104332 0 255 0
0.272901 0.007855 -0.187382 255 0 0
-0.000403 0.019060 0.153360 127 127 0
0.170646 0.017966 -0.339521 255 0 0
0.388917 -0.019369 0.465336 127 127 0
0.277510 0.019060 0.437738 127 127 0
-0.050859 0.019060 0.128238 127 127 0
0.314316 0.017966 -0.417802 255 0 0
0.014171 -0.013827 0.312201 127 127 0
-0.544966 -0.013604 -0.074907 0 255 0
0.508633 0.001004 -0.282167 255 0 0
-0.717699 -0.000702 0.172809 0 0 255
0.370083 -0.020463 -0.400847 255 0 0
0.449395 0.019060 0.422526 127 127 0
-0.191304 -0.000702 -0.070460 0 0 255
0.417000 -0.009117 -0.170596 255 0 0
0.155250 0.019060 0.192353 127 127 0
-0.404936 -0.000702 0.107620 0 0 255
0.464079 0.017966 -0.192921 255 0 0
-0.317362 -0.019369 -0.015255 0 255 0
-0.472506 0.017966 0.104592 0 0 255
-0.466388 -0.000702 -0.086292 0 255 0
0.400240 -0.008769 -0.388789 255 0 0
-0.164766 -0.019369 -0.010907 0 255 0
0.098254 0.017966 -0.100100 255 0 0
-0.469522 -0.000702 0.056985 0 0 255
0.556281 -0.008803 0.321898 127 127 0
-0.555284 -0.000702 -0.057806 0 255 0
0.274891 0.019060 0.218308 127 127 0
-0.026396 -0.019369 0.139240 127 127 0
0.501068 -0.019369 0.239880 127 127 0
0.375732 -0.009235 0.258366 127 127 0
-0.001840 0.017966 -0.204577 255 0 0
0.344198 0.013454 0.189850 127 127 0
0.291292 0.017966 -0.139310 255 0 0
-0.022972 -0.008099 0.073668 127 127 0
0.241295 -0.020463 -0.152606 255 0 0
0.475975 -0.008174 -0.354970 255 0 0
-0.468007 0.009243 0.079311 0 0 255
0.042222 0.013521 0.343762 127 127 0
0.092658 -0.020463 -0.168976 255 0 0
0.073311 0.017966 -0.105302 255 0 0
0.168599 -0.019369 0.427222 127 127 0
0.048588 0.017966 -0.199583 255 0 0
-0.101267 0.017966 -0.090534 255 0 0
-0.192205 -0.000702 0.104676 0 255 0
-0.613688 -0.009008 -0.123206 0 255 0
0.004552 -0.007778 -0.259065 255 0 0
0.491969 -0.020463 -0.196936 255 0 0
-0.073189 -0.000702 0.094566 127 127 0
-0.257017 -0.026350 0.005663 76 0 153
-0.034849 0.017966 -0.071672 255 0 0
-0.025788 0.017966 -0.036158 255 0 0
-0.461097 -0.000702 -0.060959 0 255 0
0.085639 0.003160 -0.341042 255 0 0
0.156919 0.017966 -0.137207 255 0 0
0.458169 -0.019369 0.227571 127 127 0
0.378084 -0.009196 -0.158281 255 0 0
0.022424 0.019060 0.124822 127 127 0
0.461983 0.009077 -0.240075 255 0 0
0.095810 -0.001563 -0.203901 255 0 0
-0.417320 0.017966 0.110349 0 0 255
0.488152 0.019060 0.440146 127 127 0
-0.462563 -0.005805 -0.017667 0 255 0
0.050211 0.019060 0.270849 127 127 0
-0.293533 0.017966 0.070514 0 0 255
-0.480209 -0.000702 -0.035726 0 255 0
-0.629806 -0.003098 -0.126847 0 255 0
-0.431204 -0.000702 -0.070749 0 255 0
0.242947 -0.019369 0.466936 127 127 0
0.183174 0.017966 -0.393314 255 0 0
0.007262 0.019060 0.222587 127 127 0
0.330282 -0.019369 0.227828 127 127 0
-0.608209 0.007113 0.121146 0 0 255
0.546568 0.007405 0.288523 127 127 0
0.479070 0.019060 0.423805 127 127 0
-0.916085 -0.019369 -0.183645 0 255 0
0.033429 -0.020463 -0.194904 255 0 0
0.336150 -0.008146 -0.205008 255 0 0
-0.387037 -0.012851 -0.016415 0 255 0
-0.121491 0.003924 0.008565 0 0 255
-0.022297 -0.019369 0.090050 127 127 0
-0.007764 0.011270 -0.036189 255 0 0
0.035427 -0.019369 0.183281 127 127 0
0.141710 0.019060 0.154778 127 127 0
-0.008511 -0.011546 0.282385 127 127 0
0.160056 0.017966 -0.114404 255 0 0
0.218427 -0.020463 -0.382383 255 0 0
-0.189525 -0.019369 0.111166 0 255 0
0.082291 0.019060 0.344065 127 127 0
0.265337 -0.019369 0.472406 127 127 0
-0.282995 -0.034338 0.028205 76 0 153
-0.174544 0.017966 -0.007525 0 0 255
-0.220053 -0.000702 -0.036605 0 0 255
-0.126286 -0.019369 0.110760 0 255 0
0.049686 0.017966 -0.236995 255 0 0
0.045651 -0.000562 -0.053091 255 0 0
-0.036352 0.002413 0.081515 127 127 0
0.510994 0.006988 0.426955 127 127 0
0.110866 -0.020463 -0.336943 255 0 0
-0.203841 -0.000702 0.108527 0 255 0
-0.932927 -0.000702 -0.173918 0 255 0
0.236079 -0.019369 0.456760 127 127 0
0.061118 -0.020463 -0.267364 255 0 0
0.267431 0.019060 0.166660 127 127 0
-0.806717 -0.000702 0.171993 0 0 255
-0.002634 0.017966 -0.115066 255 0 0
-0.031761 0.019060 0.071336 127 127 0
-0.460762 -0.000702 0.041212 0 0 255
0.345687 -0.009540 0.190321 127 127 0
-0.448713 -0.000702 0.106971 0 0 255
-0.078450 -0.019369 0.080971 127 127 0
-0.596329 -0.009026 -0.076533 0 255 0
-0.137523 0.008785 0.032285 0 0 255
0.482299 -0.019250 0.233549 127 127 0
0.182133 -0.012388 0.442719 127 127 0
0.296456 -0.019369 0.198426 127 127 0
-0.011827 -0.019369 0.100284 127 127 0
0.543090 -0.019252 0.387106 127 127 0
0.025383 0.017966 -0.201022 255 0 0
-0.022256 -0.019369 0.113201 127 127 0
0.439847 0.016147 0.276234 127 127 0
-0.500355 -0.019369 -0.092911 0 255 0
-0.060773 -0.014394 0.079778 127 127 0
-0.137094 0.017966 0.014102 0 0 255
-0.589554 -0.019369 -0.100162 0 255 0
0.324402 -0.006725 -0.141295 255 0 0
0.372207 0.017966 -0.205976 255 0 0
0.011895 0.017966 -0.158486 255 0 0
0.535105 0.019060 0.341353 127 127 0
-0.302892 0.032935 0.018576 76 0 153
0.108669 -0.020441 -0.358199 255 0 0
-0.817573 0.010711 0.211645 0 0 255
0.231830 0.017966 -0.391878 255 0 0
-0.219604 0.017966 -0.012302 0 0 255
-0.044852 -0.020463 -0.111058 255 0 0
0.506333 -0.007998 -0.303343 255 0 0
-0.559059 0.001942 0.085130 0 0 255
-0.205477 0.017966 -0.044013 0 0 255
-0.229273 -0.019369 0.077825 0 255 0
0.123265 0.018308 0.409854 127 127 0
-0.334924 -0.000702 0.058643 0 255 0
-0.001444 0.019060 0.273515 127 127 0
-0.552167 -0.000702 -0.085830 0 255 0
-0.420602 -0.000702 0.074485 0 0 255
-0.478751 -0.013654 -0.051703 0 255 0
0.131473 0.017966 -0.134790 255 0 0
0.394111 0.018207 0.263488 127 127 0
0.428633 -0.017832 -0.230781 255 0 0
-0.305514 -0.000702 0.025883 0 255 0
-0.674094 -0.019369 -0.128645 0 255 0
-0.171302 -0.000702 0.017394 0 255 0
-0.501401 0.007775 0.085807 0 0 255
-0.572169 -0.000702 -0.078643 0 255 0
0.542057 -0.012595 0.278997 127 127 0
0.404368 0.017966 -0.218015 255 0 0
0.318530 0.009623 -0.200098 255 0 0
-0.881418 -0.000702 -0.173974 0 255 0
0.027641 -0.020463 -0.163599 255 0 0
0.444355 0.008441 0.421246 127 127 0
0.202633 -0.012892 -0.410477 255 0 0
-0.410976 -0.000702 0.088005 0 0 255
-0.034873 0.003603 -0.031371 255 0 0
-0.023622 0.017966 -0.170060 255 0 0
-0.007260 0.017966 -0.070750 255 0 0
0.219837 0.018786 0.214922 127 127 0
0.197747 0.003026 -0.166438 255 0 0
-0.242999 0.028540 0.007348 76 0 153
-0.269854 -0.026350 -0.000884 76 0 153
0.548860 -0.007866 -0.327427 255 0 0
0.069967 0.019060 0.167326 127 127 0
0.372429 0.017966 -0.430056 255 0 0
0.101534 0.007908 0.219386 127 127 0
0.070966 0.017966 -0.237894 255 0 0
0.407381 -0.020463 -0.177140 255 0 0
-0.476019 -0.000702 -0.046365 0 255 0
0.076958 0.019060 0.189411 127 127 0
0.301502 0.012953 0.423795 127 127 0
0.077385 0.017966 -0.256663 255 0 0
0.447052 -0.019369 0.453377 127 127 0
-0.258036 0.032935 0.032083 76 0 153
0.245868 -0.007551 0.468813 127 127 0
-0.639139 -0.000702 0.115296 0 0 255
0.220935 -0.010719 -0.354463 255 0 0
0.551486 0.019060 0.362372 127 127 0
0.335376 0.017966 -0.175479 255 0 0
-0.585223 -0.000702 0.126385 0 0 255
0.063402 0.017966 -0.115819 255 0 0
0.509171 -0.019369 0.298030 127 127 0
-0.121779 -0.000702 0.092087 127 127 0
-0.048842 0.009557 -0.171992 255 0 0
-0.374411 -0.000702 -0.015715 0 255 0
0.186137 0.019060 0.202842 127 127 0
-0.181694 -0.019369 0.075490 0 255 0
0.170749 0.002907 -0.325244 255 0 0
0.081698 0.019060 0.211081 127 127 0
-0.011511 -0.020463 -0.189738 255 0 0
-0.568469 -0.016915 -0.112990 0 255 0
-0.631620 0.017966 0.148735 0 0 255
-0.502300 -0.000702 -0.031788 0 255 0
-0.320547 0.009155 0.099361 0 0 255
-0.326106 -0.000702 0.033492 0 255 0
0.440133 -0.020463 -0.190950 255 0 0
0.503492 0.016017 -0.388789 255 0 0
-0.646754 0.006927 0.134084 0 0 255
-0.033115 -0.019369 0.072189 127 127 0
-0.018183 0.019060 0.136100 127 127 0
-0.314988 -0.000702 -0.000131 0 255 0
0.012595 0.012593 -0.268869 255 0 0
0.135024 0.005329 -0.375306 255 0 0
-0.166432 -0.000702 -0.041702 255 0 0
0.518524 -0.020463 -0.290181 255 0 0
0.385665 -0.020463 -0.184296 255 0 0
0.015950 0.017966 -0.252953 255 0 0
0.246365 0.019060 0.433969 127 127 0
0.144095 -0.005171 -0.151487 255 0 0
-0.068611 -0.019369 0.111045 127 127 0
0.274158 0.017966 -0.125775 255 0 0
0.529652 -0.019369 0.337761 127 127 0
-0.285635 0.003852 -0.011126 0 255 0
-0.060857 -0.008190 -0.111343 255 0 0
-0.483823 -0.019369 -0.087652 0 255 0
0.257437 0.019060 0.204586 127 127 0
-0.222365 -0.019369 0.105387 0 255 0
0.084694 -0.019369 0.366731 127 127 0
0.344763 -0.016843 -0.386987 255 0 0
0.282050 -0.019369 0.461511 127 127 0
0.009157 -0.019369 0.209406 127 127 0
0.222646 -0.019369 0.204477 127 127 0
0.145592 -0.007605 -0.307371 255 0 0
-0.148209 -0.000702 0.023146 0 255 0
0.154357 -0.019369 0.381157 127 127 0
-0.128179 0.004459 0.017365 0 0 255
-0.051745 0.019060 0.154732 127 127 0
-0.098685 -0.019369 0.136248 127 127 0
0.318606 -0.011634 -0.200119 255 0 0
-0.759524 -0.000702 0.189008 0 0 255
0.273474 -0.019369 0.194025 127 127 0
-0.684558 0.009336 0.154751 0 0 255
0.001559 -0.020463 -0.085093 255 0 0
-0.055735 0.004591 -0.157000 255 0 0
0.243913 -0.009069 0.406631 127 127 0
-0.490237 -0.018872 -0.066045 0 255 0
0.447535 0.007894 0.278376 127 127 0
0.367582 -0.020463 -0.415301 255 0 0
-0.309790 0.013728 0.006416 76 0 153
-0.119750 0.011330 -0.096154 255 0 0
-0.828653 0.005907 0.214148 0 0 255
-0.140689 -0.000702 0.110709 0 255 0
0.517994 0.019060 0.279377 127 127 0
-0.313102 -0.011927 0.087340 0 255 0
0.012580 0.017966 -0.217303 255 0 0
-0.023157 -0.019369 0.229070 127 127 0
0.260006 -0.002353 0.226116 127 127 0
0.316421 -0.019369 0.207743 127 127 0
0.214419 0.019060 0.411033 127 127 0
0.520758 -0.007178 -0.376416 255 0 0
0.220986 0.019060 0.160898 127 127 0
0.086203 0.017966 -0.325416 255 0 0
-0.172809 0.011185 0.065985 0 0 255
0.103344 -0.017309 0.212044 127 127 0
0.488171 -0.008037 0.289700 127 127 0
-0.313255 0.017966 0.041251 0 0 255
-0.304569 -0.019369 0.056082 0 255 0
-0.412239 0.011358 0.067245 0 0 255
0.555473 0.009745 -0.283602 255 0 0
0.552655 -0.006771 -0.312725 255 0 0
0.166678 -0.020463 -0.129552 255 0 0
-0.000759 0.017966 -0.051753 255 0 0
-0.229749 0.010736 -0.067051 0 0 255
0.278051 -0.011226 -0.126629 255 0 0
-0.192264 -0.011381 0.119310 0 255 0
0.416777 0.017655 0.473003 127 127 0
-0.390579 -0.000702 0.077462 0 0 255
-0.097137 -0.000702 0.087579 127 127 0
0.364589 0.017045 0.483915 127 127 0
-0.143824 0.017966 -0.012052 0 0 255
-0.242894 -0.011813 0.105915 0 255 0
-0.446770 -0.012183 -0.035100 0 255 0
0.264083 -0.020463 -0.390315 255 0 0
-0.218045 -0.017674 -0.033825 0 255 0
0.413695 -0.006905 0.431004 127 127 0
0.232738 0.019060 0.415544 127 127 0
-0.353632 -0.019369 -0.015270 0 255 0
-0.130298 -0.000702 0.059247 127 127 0
-0.527463 0.009188 0.146106 0 0 255
-0.241296 -0.020265 0.023983 76 0 153
0.091501 0.008456 0.109890 127 127 0
-0.729920 -0.000702 0.181130 0 0 255
0.509473 -0.000578 0.322995 127 127 0
0.031867 0.019060 0.103520 127 127 0
0.406343 -0.020463 -0.392304 255 0 0
-0.474467 0.009724 0.134133 0 0 255
0.506182 0.006614 -0.265505 255 0 0
-0.726713 0.017966 0.177867 0 0 255
0.384996 0.005016 -0.438181 255 0 0
0.275564 -0.019369 0.446041 127 127 0
-0.690411 -0.000702 -0.119457 0 255 0
0.157001 0.019060 0.160231 127 127 0
0.075653 0.019060 0.253096 127 127 0
0.328522 -0.000976 -0.385738 255 0 0
-0.963782 0.017386 0.244676 0 0 255
-0.286875 0.024947 0.027779 76 0 153
-0.849139 0.001488 0.185938 0 0 255
0.230165 -0.019369 0.178826 127 127 0
0.155105 -0.005524 -0.314129 255 0 0
-0.885068 -0.000702 0.212163 0 0 255
0.205214 0.002862 0.388615 127 127 0
0.452644 -0.020463 -0.404894 255 0 0
0.370110 0.008298 0.198049 127 127 0
0.323827 0.019060 0.210153 127 127 0
-0.070630 0.017966 -0.053578 255 0 0
0.274743 -0.019369 0.422612 127 127 0
0.419700 -0.020463 -0.193048 255 0 0
-0.106029 -0.019369 0.123108 127 127 0
0.526967 0.017966 -0.338259 255 0 0
-0.309599 -0.022687 0.033101 76 0 153
-0.453712 -0.000702 0.118913 0 0 255
-0.241042 0.008976 0.081400 0 0 255
0.066245 0.017966 -0.317583 255 0 0
0.507599 -0.020463 -0.347976 255 0 0
0.148542 0.019060 0.357019 127 127 0
0.533022 -0.019369 0.291291 127 127 0
0.545794 0.006308 0.380931 127 127 0
0.140107 0.017966 -0.309678 255 0 0
-0.002740 0.003984 0.080070 127 127 0
0.067728 0.001765 -0.325983 255 0 0
-0.488208 -0.000702 -0.060307 0 255 0
0.295621 -0.020463 -0.410304 255 0 0
-0.533017 0.007403 0.095634 0 0 255
0.265284 -0.011995 -0.371975 255 0 0
-0.103943 0.009838 -0.100335 255 0 0
0.092048 -0.019369 0.192060 127 127 0
-0.286692 0.024947 -0.000927 76 0 153
0.140476 0.019060 0.414029 127 127 0
-0.033213 -0.020463 -0.048582 255 0 0
0.238824 0.009100 -0.114216 255 0 0
-0.016265 0.008027 0.270826 127 127 0
-0.240973 0.017966 0.052518 0 0 255
0.089164 0.019060 0.232133 127 127 0
0.350475 0.014024 -0.149545 255 0 0
-0.083383 0.017966 -0.072737 255 0 0
0.364554 -0.009704 0.255251 127 127 0
-0.525752 -0.000702 -0.034496 0 255 0
0.043588 -0.011661 -0.303433 255 0 0
0.086759 0.019060 0.272475 127 127 0
0.307337 0.019060 0.213558 127 127 0
-0.542764 -0.000702 0.124968 0 0 255
0.530084 -0.020463 -0.263467 255 0 0
0.423233 0.017966 -0.394970 255 0 0
0.297537 -0.019369 0.216654 127 127 0
0.488780 0.017966 -0.219429 255 0 0
-0.301212 -0.008058 -0.052614 0 255 0
0.099772 -0.009412 -0.243913 255 0 0
0.458956 -0.009522 -0.413924 255 0 0
0.513667 -0.019369 0.275529 127 127 0
0.187636 -0.020463 -0.132752 255 0 0
0.531229 0.017966 -0.322356 255 0 0
0.096694 0.017966 -0.190320 255 0 0
-0.851717 -0.000702 0.208220 0 0 255
0.366182 -0.005146 -0.441238 255 0 0
-0.557405 0.009227 0.152870 0 0 255
-0.331446 0.017966 0.077358 0 0 255
-0.780335 -0.019369 -0.151918 0 255 0
-0.848639 0.009817 0.199520 0 0 255
0.354747 0.017966 -0.389482 255 0 0
0.350614 -0.019369 0.483365 127 127 0
-0.519101 -0.000702 0.098193 0 0 255
-0.252628 0.017966 0.070491 0 0 255
-0.457604 0.008417 0.072654 0 0 255
-0.038442 -0.008412 -0.192628 255 0 0
-0.294650 0.024947 0.051221 76 0 153
0.087410 0.019060 0.295612 127 127 0
-0.203595 -0.000702 -0.016640 0 255 0
-0.238612 0.017966 0.075368 0 0 255
-0.290977 -0.026350 0.011457 76 0 153
-0.043915 0.017966 -0.114132 255 0 0
-0.015198 -0.019369 0.252862 127 127 0
-0.283325 -0.019369 -0.045681 0 255 0
-0.709360 -0.000702 -0.113053 0 255 0
0.126504 -0.019369 0.175160 127 127 0
0.405279 0.017966 -0.393526 255 0 0
0.259358 -0.020463 -0.174864 255 0 0
0.029148 0.006223 -0.047869 255 0 0
0.113291 -0.019369 0.172872 127 127 0
0.166623 0.005278 0.364221 127 127 0
0.054784 -0.020463 -0.122963 255 0 0
0.554565 0.017966 -0.274147 255 0 0
-0.018892 -0.020463 -0.113818 255 0 0
0.391113 0.017966 -0.195565 255 0 0
0.027825 -0.019369 0.277678 127 127 0
0.368410 0.011577 -0.441115 255 0 0
-0.924332 0.003580 0.215238 0 0 255
0.531079 0.019060 0.376117 127 127 0
0.270743 -0.020463 -0.179229 255 0 0
0.513737 0.006966 -0.204785 255 0 0
0.435203 -0.020463 -0.393745 255 0 0
-0.212614 0.001517 -0.071584 0 0 255
-0.049859 0.017966 -0.056591 255 0 0
0.439589 0.010995 -0.177744 255 0 0
0.170080 0.019060 0.388481 127 127 0
0.441520 -0.020463 -0.218610 255 0 0
-0.309815 0.017966 0.074213 0 0 255
-0.450683 -0.000702 0.085786 0 0 255
0.182121 0.017966 -0.108310 255 0 0
-0.045298 -0.020463 -0.157164 255 0 0
0.441698 -0.019369 0.435146 127 127 0
0.120196 0.016258 -0.149223 255 0 0
-0.350891 -0.019369 -0.001515 0 255 0
-0.021619 0.017966 -0.190991 255 0 0
-0.649711 -0.000702 0.117816 0 0 255
0.216113 -0.008995 0.149321 127 127 0
0.203607 0.019060 0.154448 127 127 0
-0.016489 -0.014071 -0.033428 255 0 0
-0.643761 -0.000702 0.152162 0 0 255
0.034081 -0.020463 -0.126995 255 0 0
-0.149934 -0.019369 0.016087 0 255 0
0.026295 0.017966 -0.245976 255 0 0
-0.125699 0.017966 -0.003210 255 0 0
-0.011836 -0.018018 0.077192 127 127 0
0.068709 -0.020463 -0.142553 255 0 0
-0.307306 -0.000702 -0.011443 0 255 0
0.331812 -0.020463 -0.168736 255 0 0
0.285567 -0.001995 0.420069 127 127 0
-0.034822 0.019060 0.118197 127 127 0
-0.457867 0.014492 0.094671 0 0 255
-0.855919 -0.000702 -0.163339 0 255 0
0.110422 -0.010692 0.310732 127 127 0
-0.610551 0.009650 0.164876 0 0 255
0.440478 -0.006305 0.464824 127 127 0
-0.324354 -0.019369 0.073858 0 255 0
-0.134636 0.017966 -0.081280 255 0 0
0.040009 0.019060 0.095060 127 127 0
0.009289 0.019060 0.109232 127 127 0
-0.263742 0.017966 -0.022484 0 0 255
-0.050169 0.007793 -0.078447 255 0 0
0.087597 -0.019369 0.382438 127 127 0
0.081945 -0.019369 0.325904 127 127 0
0.462894 -0.020463 -0.215006 255 0 0
-0.263704 -0.010708 -0.013697 76 0 153
-0.617406 -0.007949 -0.080088 0 255 0
-0.652093 0.010943 0.147193 0 0 255
-0.309013 0.017966 0.051440 0 0 255
0.277595 -0.003295 0.231018 127 127 0
-0.571958 -0.000702 0.100529 0 0 255
-0.345869 -0.000702 -0.041751 0 255 0
0.445646 -0.019369 0.259711 127 127 0
0.200770 -0.019369 0.443175 127 127 0
0.302420 -0.007542 -0.438641 255 0 0
-0.428701 -0.000702 0.106916 0 0 255
-0.017983 -0.009492 -0.227062 255 0 0
-0.279753 -0.034338 0.010875 76 0 153
0.525003 0.017966 -0.293032 255 0 0
0.462025 0.015197 -0.412535 255 0 0
0.017332 0.017966 -0.083086 255 0 0
-0.014022 0.019060 0.238248 127 127 0
-0.017768 -0.020463 -0.136091 255 0 0
0.480065 0.015378 0.446281 127 127 0
0.048299 0.017966 -0.212594 255 0 0
-0.879108 0.010589 0.208355 0 0 255
0.015949 0.003070 -0.272958 255 0 0
-0.951610 0.008679 0.226516 0 0 255
0.055043 -0.020463 -0.067351 255 0 0
-0.086938 -0.010346 0.147176 127 127 0
0.346861 0.001770 -0.387055 255 0 0
-0.087692 -0.000702 -0.031400 255 0 0
0.387994 0.019060 0.468860 127 127 0
0.196077 -0.020463 -0.353451 255 0 0
0.556366 0.003220 0.330651 127 127 0
-0.817615 -0.000702 -0.125734 0 255 0
0.038372 -0.020463 -0.139275 255 0 0
-0.031113 0.008565 0.246621 127 127 0
-0.043553 -0.007198 -0.058084 255 0 0
-0.269234 0.017966 0.069890 0 0 255
-0.232523 -0.000702 -0.002980 0 255 0
0.120190 0.019060 0.127268 127 127 0
-0.803853 -0.000702 -0.164145 0 255 0
0.032518 -0.020463 -0.287583 255 0 0
0.554057 -0.018812 -0.304533 255 0 0
-0.851047 -0.009052 -0.156179 0 255 0
-0.453369 -0.000702 -0.068671 0 255 0
0.122913 0.019060 0.385583 127 127 0
-0.437019 0.005325 0.125673 0 0 255
0.446287 0.017966 -0.210520 255 0 0
-0.158229 -0.019369 0.091188 0 255 0
0.311714 -0.019369 0.192675 127 127 0
0.518794 -0.020463 -0.226754 255 0 0
0.377966 -0.008616 0.430633 127 127 0
-0.018113 -0.020463 -0.052879 255 0 0
-0.156722 -0.000702 0.115729 0 255 0
0.105311 -0.013803 -0.259779 255 0 0
0.264452 -0.009738 -0.431520 255 0 0
-0.760850 0.017966 0.185091 0 0 255
0.353795 -0.012411 -0.209925 255 0 0
-0.215029 0.017966 -0.032615 0 0 255
-0.684770 -0.000702 0.145712 0 0 255
-0.037507 0.016449 -0.039477 255 0 0
-0.784963 0.005915 0.179248 0 0 255
0.341324 -0.019369 0.215246 127 127 0
0.138616 -0.020463 -0.365086 255 0 0
-0.981999 0.008482 0.234589 0 0 255
0.100478 -0.019369 0.382674 127 127 0
0.304352 0.017966 -0.392762 255 0 0
0.085479 -0.020463 -0.232872 255 0 0
-0.358234 0.006795 -0.025990 0 0 255
-0.262860 0.024947 0.055056 76 0 153
0.041603 -0.020463 -0.174625 255 0 0
0.082327 -0.019369 0.243602 127 127 0
0.082475 -0.020463 -0.308638 255 0 0
0.072485 -0.020463 -0.234918 255 0 0
-0.367319 0.017966 0.065709 0 0 255
-0.147406 0.017966 -0.047954 255 0 0
-0.253147 -0.030964 0.050826 76 0 153
0.044870 -0.020463 -0.226216 255 0 0
0.420943 -0.020463 -0.391117 255 0 0
-0.005474 0.013609 0.286573 127 127 0
0.174624 -0.020463 -0.343230 255 0 0
0.524857 0.011796 -0.211976 255 0 0
-0.352616 0.006295 0.106606 0 0 255
-0.421060 -0.019369 -0.073013 0 255 0
0.270079 0.003756 0.415699 127 127 0
0.314412 -0.005940 0.426162 127 127 0
0.210338 0.009874 -0.413876 255 0 0
0.544510 0.017852 -0.339042 255 0 0
-0.436058 -0.011239 -0.083077 0 255 0
-0.164303 -0.019369 0.038514 0 255 0
0.259987 -0.020463 -0.407541 255 0 0
0.052229 0.017966 -0.156046 255 0 0
0.321910 -0.019369 0.463401 127 127 0
-0.523020 -0.014422 -0.070108 0 255 0
0.126986 -0.020463 -0.350022 255 0 0
0.529034 -0.020463 -0.295132 255 0 0
0.218259 -0.020463 -0.129540 255 0 0
0.138051 -0.020463 -0.334738 255 0 0
-0.273038 -0.026311 0.058616 76 0 153
-0.283379 -0.000702 0.072922 0 255 0
0.155030 -0.017300 0.355984 127 127 0
-0.686477 0.017966 0.172473 0 0 255
0.331779 0.017966 -0.433546 255 0 0
0.142443 0.005629 0.193354 127 127 0
-0.435716 0.001429 0.039711 0 0 255
-0.358974 0.017966 0.046794 0 0 255
0.061151 -0.019369 0.147922 127 127 0
0.083640 -0.020463 -0.325201 255 0 0
-0.451654 0.005239 0.059090 0 0 255
0.070251 0.019060 0.263347 127 127 0
0.495235 0.017966 -0.205784 255 0 0
0.331036 0.009685 0.245911 127 127 0
0.062671 0.019060 0.130271 127 127 0
-0.401119 -0.019369 -0.070992 0 255 0
0.102990 -0.007749 -0.166927 255 0 0
-0.177916 0.017966 -0.025581 0 0 255
-0.049022 -0.019369 0.112730 127 127 0
0.553223 0.004506 -0.310063 255 0 0
0.069016 0.017966 -0.273083 255 0 0
0.010244 0.017966 -0.051543 255 0 0
0.022178 -0.020463 -0.085947 255 0 0
0.125611 -0.001713 0.190843 127 127 0
-0.142818 0.017966 0.004813 0 0 255
0.357743 -0.001841 -0.151845 255 0 0
0.252824 -0.019369 0.172331 127 127 0
-0.675965 -0.000702 0.127012 0 0 255
0.173204 -0.005565 -0.093452 255 0 0
-0.129453 0.017966 -0.039305 255 0 0
-0.036858 -0.008563 -0.037479 255 0 0
-0.161433 0.017966 0.052087 0 0 255
0.445849 -0.020463 -0.384282 255 0 0
0.200615 0.019060 0.447387 127 127 0
-0.643715 -0.000702 -0.102318 0 255 0
0.299197 0.009142 -0.380948 255 0 0
0.273563 0.017966 -0.394500 255 0 0
0.289675 0.017966 -0.172827 255 0 0
-0.087875 -0.019369 0.131757 127 127 0
0.479609 -0.009137 -0.403392 255 0 0
-0.507897 0.009825 0.095496 0 0 255
0.380585 -0.010947 0.201364 127 127 0
0.533475 -0.014668 -0.223087 255 0 0
-0.234777 0.017966 -0.054761 0 0 255
-0.560733 -0.000702 -0.099001 0 255 0
0.113485 0.019060 0.390547 127 127 0
0.088668 -0.019369 0.159507 127 127 0
0.252342 -0.019369 0.442125 127 127 0
0.257149 0.017966 -0.380412 255 0 0
0.401159 -0.012163 0.431387 127 127 0
0.116863 -0.020463 -0.100557 255 0 0
0.113819 -0.009921 -0.074661 255 0 0
-0.678974 -0.008444 -0.103623 0 255 0
-0.249228 0.025718 0.042435 76 0 153
0.127213 -0.019369 0.155656 127 127 0
0.137067 0.019060 0.178962 127 127 0
0.265900 0.017966 -0.138734 255 0 0
0.376430 0.019060 0.246021 127 127 0
-0.465259 -0.000702 0.092717 0 0 255
-0.262860 0.017966 -0.043156 0 0 255
-0.410401 -0.014741 -0.031484 0 255 0
-0.196090 -0.000702 0.047720 0 255 0
0.120631 -0.019182 0.327178 127 127 0
0.101222 -0.015631 -0.174101 255 0 0
0.292917 0.014304 0.235288 127 127 0
0.113101 0.017966 -0.281325 255 0 0
0.272052 0.019060 0.187547 127 127 0
-0.014351 0.017966 -0.221832 255 0 0
0.124175 0.010431 -0.077938 255 0 0
0.076640 -0.020463 -0.262833 255 0 0
-0.393058 -0.000702 -0.055857 0 255 0
0.531960 0.017966 -0.249449 255 0 0
-0.818654 0.008197 0.190167 0 0 255
0.019076 -0.020463 -0.240204 255 0 0
-0.290468 0.014772 -0.050987 0 0 255
-0.091680 -0.000702 0.131258 127 127 0
0.511886 -0.020463 -0.256266 255 0 0
0.169718 -0.010690 0.366420 127 127 0
0.050531 0.019060 0.259214 127 127 0
0.371960 0.017966 -0.389984 255 0 0
0.092890 -0.020463 -0.244451 255 0 0
0.152607 0.017955 0.427575 127 127 0
-0.362010 -0.000702 0.035895 0 255 0
0.047564 0.019060 0.336473 127 127 0
-0.489270 -0.000702 0.122998 0 0 255
0.270945 -0.020463 -0.137835 255 0 0
-0.726372 -0.011840 -0.124572 0 255 0
0.236218 0.019060 0.441949 127 127 0
-0.868576 0.007685 0.203286 0 0 255
0.433533 0.017966 -0.391349 255 0 0
0.341899 0.017966 -0.398282 255 0 0
0.291160 -0.008441 -0.379034 255 0 0
-0.433412 -0.009510 -0.020741 0 255 0
-0.068753 -0.000702 -0.109405 255 0 0
-0.880800 -0.007424 -0.183550 0 255 0
0.093966 -0.007010 -0.068379 255 0 0
0.171006 0.004828 0.135048 127 127 0
0.075840 -0.020463 -0.252198 255 0 0
0.470777 0.019060 0.404437 127 127 0
0.166060 0.011329 -0.392494 255 0 0
0.429257 -0.001911 0.427221 127 127 0
-0.611583 -0.000702 -0.112866 0 255 0
0.469636 0.019060 0.428577 127 127 0
-0.016219 -0.020463 -0.092120 255 0 0
-0.410945 -0.019369 -0.053301 0 255 0
0.336651 0.019060 0.206189 127 127 0
0.426982 0.004019 -0.230321 255 0 0
-0.295563 0.017966 0.090474 0 0 255
0.545928 -0.008780 -0.246699 255 0 0
0.226849 -0.020463 -0.397560 255 0 0
0.221862 -0.020463 -0.414439 255 0 0
0.105186 0.019060 0.349417 127 127 0
-0.629517 -0.015659 -0.101279 0 255 0
-0.170423 0.017966 0.010531 0 0 255
0.385945 0.019060 0.252001 127 127 0
-0.603885 -0.010305 -0.083818 0 255 0
-0.248317 0.022764 0.000073 76 0 153
0.050514 0.017966 -0.107501 255 0 0
0.195793 0.019060 0.183182 127 127 0
-0.021551 0.019060 0.123416 127 127 0
-0.238233 -0.000702 0.077709 0 255 0
0.049824 -0.019369 0.315076 127 127 0
0.077933 0.017966 -0.314515 255 0 0
0.004846 -0.020463 -0.139317 255 0 0
0.244482 -0.011590 -0.426093 255 0 0
0.518899 -0.020463 -0.278211 255 0 0
0.497615 0.017966 -0.337030 255 0 0
-0.028545 0.005001 -0.210371 255 0 0
-0.528537 0.002586 0.076672 0 0 255
0.469041 -0.018885 0.229354 127 127 0
-0.167678 0.017966 -0.041456 0 0 255
0.061716 -0.020463 -0.080481 255 0 0
-0.310992 0.017966 0.087374 0 0 255
0.222131 -0.020463 -0.153229 255 0 0
0.363223 -0.019369 0.210088 127 127 0
-0.514148 0.007788 0.143098 0 0 255
0.144449 0.019060 0.193816 127 127 0
-0.048252 -0.005361 0.118139 127 127 0
-0.324569 0.017966 0.056962 0 0 255
-0.352583 0.017966 0.027261 0 0 255
0.513054 -0.019369 0.410541 127 127 0
0.284581 0.017966 -0.129174 255 0 0
-0.421101 -0.000702 -0.002803 0 255 0
-0.015867 0.019060 0.146368 127 127 0
0.205966 0.017966 -0.126502 255 0 0
0.060738 -0.003482 -0.319895 255 0 0
-0.739161 0.009038 0.169298 0 0 255
0.391728 0.008368 0.479552 127 127 0
-0.633682 0.007798 0.132612 0 0 255
0.163653 -0.020463 -0.363772 255 0 0
0.060071 -0.019369 0.275054 127 127 0
0.247175 0.019060 0.168180 127 127 0
-0.689580 -0.009303 -0.140351 0 255 0
0.489796 -0.020463 -0.214505 255 0 0
-0.538253 -0.000702 -0.095782 0 255 0
0.210117 0.014432 0.391270 127 127 0
0.019362 0.017966 -0.172308 255 0 0
-0.660949 0.002140 0.121825 0 0 255
0.330482 0.019060 0.474494 127 127 0
-0.388678 -0.000702 0.005660 0 255 0
0.245131 -0.011096 0.221971 127 127 0
-0.471337 -0.000702 0.122712 0 0 255
-0.228284 0.017966 -0.034397 0 0 255
0.522510 -0.019369 0.376494 127 127 0
-0.482978 -0.009973 -0.039916 0 255 0
0.369840 0.017966 -0.180668 255 0 0
0.522534 0.019060 0.341420 127 127 0
-0.697911 -0.019369 -0.135395 0 255 0
0.218400 -0.019369 0.431804 127 127 0
0.037456 0.019060 0.245782 127 127 0
-0.260828 -0.000702 -0.037889 0 255 0
-0.211842 0.017966 0.062134 0 0 255
0.152994 0.019060 0.405350 127 127 0
0.095794 0.019060 0.354715 127 127 0
0.489296 0.017966 -0.354275 255 0 0
0.252107 -0.005922 -0.367440 255 0 0
-0.663170 0.008979 0.147286 0 0 255
-0.874737 -0.019369 -0.172363 0 255 0
-0.543899 -0.001608 -0.031251 0 255 0
0.279577 0.019060 0.464999 127 127 0
-0.519115 -0.000702 -0.043327 0 255 0
-0.089540 0.008238 -0.104146 255 0 0
-0.036666 0.019060 0.146422 127 127 0
-0.289171 0.032935 0.017190 76 0 153
0.292435 0.019060 0.200127 127 127 0
-0.236990 -0.000702 -0.032904 0 255 0
0.032932 0.017966 -0.096053 255 0 0
0.513175 -0.020463 -0.309888 255 0 0
0.116581 0.017966 -0.357676 255 0 0
0.195614 -0.019369 0.384843 127 127 0
0.378665 -0.019369 0.455953 127 127 0
-0.118073 -0.012388 0.138939 127 127 0
-0.006173 -0.020463 -0.104673 255 0 0
0.242771 0.019045 0.157756 127 127 0
0.009760 0.019060 0.295701 127 127 0
-0.091204 0.010144 -0.020149 255 0 0
0.194689 -0.019369 0.157827 127 127 0
-0.716140 -0.000702 -0.123787 0 255 0
0.036323 0.017966 -0.262026 255 0 0
0.031055 -0.019369 0.090890 127 127 0
0.383769 0.017966 -0.389105 255 0 0
-0.521423 -0.000702 0.109497 0 0 255
0.011612 -0.019369 0.291473 127 127 0
0.282572 0.004943 -0.190077 255 0 0
0.499593 -0.019369 0.383372 127 127 0
-0.881065 0.009248 0.225989 0 0 255
0.179939 -0.019369 0.431043 127 127 0
0.367675 -0.019369 0.474542 127 127 0
0.096781 -0.019369 0.121953 127 127 0
0.522033 0.017966 -0.360726 255 0 0
0.504649 -0.020432 -0.388005 255 0 0
0.204864 0.006355 0.453640 127 127 0
-0.170566 -0.000702 -0.078537 255 0 0
-0.291401 0.017966 -0.036592 0 0 255
-0.895807 -0.011399 -0.170086 0 255 0
0.142253 -0.020463 -0.314342 255 0 0
-0.535091 -0.019369 -0.088225 0 255 0
0.208539 -0.019369 0.405752 127 127 0
-0.583742 -0.000702 0.084339 0 0 255
-0.217693 -0.000702 -0.000900 0 255 0
-0.368157 -0.012751 -0.001172 0 255 0
-0.268543 0.024947 0.045856 76 0 153
-0.123926 -0.019369 0.066081 127 127 0
0.108398 -0.007732 0.115237 127 127 0
-0.062825 0.014179 -0.139233 255 0 0
0.255698 -0.019369 0.452807 127 127 0
0.131389 0.019060 0.165442 127 127 0
0.544794 -0.020463 -0.309133 255 0 0
0.537777 0.017966 -0.238920 255 0 0
-0.399752 0.007920 0.050432 0 0 255
0.316791 0.001450 0.181178 127 127 0
0.554621 -0.003031 0.311160 127 127 0
-0.295205 -0.034338 -0.006401 76 0 153
0.096711 -0.006295 0.249223 127 127 0
0.106404 -0.019369 0.187718 127 127 0
0.116528 0.007815 0.320998 127 127 0
0.394524 0.017966 -0.173624 255 0 0
-0.623662 -0.000702 0.158286 0 0 255
-0.095078 -0.019369 0.113102 127 127 0
0.302079 -0.020463 -0.153389 255 0 0
0.206852 -0.020463 -0.382308 255 0 0
-0.252799 -0.006517 -0.007320 0 255 0
-0.611205 -0.019369 -0.109210 0 255 0
-0.070114 0.017966 -0.092747 255 0 0
-0.226734 0.017966 0.007018 0 0 255
0.216879 -0.019369 0.443905 127 127 0
0.538651 -0.018243 -0.231871 255 0 0
0.026507 -0.019369 0.119537 127 127 0
0.384907 0.010349 -0.218596 255 0 0
0.215876 0.017966 -0.170733 255 0 0
-0.053813 0.011969 0.135256 127 127 0
0.543531 0.019060 0.308895 127 127 0
-0.200111 -0.000702 -0.059442 0 0 255
-0.914634 -0.010569 -0.174546 0 255 0
-0.046867 -0.019369 0.154454 127 127 0
-0.281767 0.032882 -0.015774 76 0 153
-0.017157 0.017966 -0.211822 255 0 0
0.480696 0.007408 -0.350128 255 0 0
0.517210 0.019060 0.250448 127 127 0
0.185185 -0.020463 -0.098022 255 0 0
0.238097 -0.006256 -0.362034 255 0 0
-0.389012 -0.000702 -0.038220 0 255 0
-0.050502 -0.013138 -0.079471 255 0 0
0.385782 -0.019369 0.475399 127 127 0
-0.407675 -0.000702 -0.039650 0 255 0
0.348930 0.017966 -0.200282 255 0 0
0.435283 0.019060 0.223938 127 127 0
-0.264415 -0.034338 0.038400 76 0 153
0.053619 0.019060 0.285708 127 127 0
0.069179 -0.020463 -0.198832 255 0 0
-0.937163 -0.012836 -0.196283 0 255 0
0.519106 0.017966 -0.312071 255 0 0
0.526159 0.017966 -0.228381 255 0 0
0.030358 -0.020463 -0.068902 255 0 0
-0.766601 -0.019369 -0.148085 0 255 0
0.106617 0.017966 -0.079283 255 0 0
0.040154 0.017966 -0.055530 255 0 0
-0.259247 0.009585 -0.059247 0 0 255
0.342994 -0.004592 -0.441544 255 0 0
0.438853 0.003324 -0.380593 255 0 0
0.186520 -0.020463 -0.381253 255 0 0
0.244604 -0.012404 0.158336 127 127 0
-0.759937 -0.000702 -0.115548 0 255 0
0.304995 0.008097 -0.438947 255 0 0
-0.164877 -0.000702 0.006331 0 255 0
0.153928 0.007910 -0.313294 255 0 0
0.284661 -0.000010 0.171011 127 127 0
-0.004140 0.017966 -0.180626 255 0 0
0.360060 0.019060 0.243099 127 127 0
-0.104793 -0.019369 0.105770 127 127 0
0.115886 -0.019369 0.365432 127 127 0
0.274256 0.017966 -0.178285 255 0 0
-0.017314 0.019060 0.216150 127 127 0
-0.237220 -0.000702 0.098573 0 255 0
-0.581056 -0.019369 -0.094274 0 255 0
-0.343433 -0.019369 -0.055070 0 255 0
0.218670 -0.019369 0.179299 127 127 0
0.059057 -0.019369 0.236358 127 127 0
-0.294417 -0.019369 -0.043183 0 255 0
-0.901025 0.016488 0.230498 0 0 255
0.285274 -0.019369 0.441716 127 127 0
0.109740 0.016464 0.199082 127 127 0
-0.436515 -0.000702 0.059814 0 0 255
-0.703301 0.005788 0.149947 0 0 255
-0.560151 0.017966 0.131088 0 0 255
0.551644 0.005645 0.363761 127 127 0
0.282928 0.019060 0.177671 127 127 0
0.419652 -0.007915 -0.429232 255 0 0
-0.515348 -0.000702 0.078817 0 0 255
0.111365 0.002087 -0.271997 255 0 0
-0.870048 0.009126 0.223500 0 0 255
0.016934 -0.020463 -0.152829 255 0 0
-0.192888 -0.000702 0.092256 0 255 0
0.509102 0.019060 0.403779 127 127 0
-0.112067 0.017966 -0.082323 255 0 0
-0.145328 -0.000702 -0.036351 255 0 0
0.135667 0.012748 0.342227 127 127 0
-0.055164 -0.019369 0.144388 127 127 0
-0.332512 0.017966 0.050370 0 0 255
0.177010 -0.020463 -0.136204 255 0 0
-0.235384 -0.000702 0.012970 0 255 0
0.154410 0.019060 0.138588 127 127 0
-0.262545 -0.019369 -0.042545 0 255 0
0.535479 -0.006179 0.267311 127 127 0
0.055754 -0.019369 0.183278 127 127 0
0.440712 -0.017899 -0.421740 255 0 0
0.151651 -0.020463 -0.145335 255 0 0
-0.269186 -0.000702 0.002026 0 255 0
-0.153992 -0.000702 0.096791 0 255 0
0.547180 0.019060 0.331091 127 127 0
-0.275653 0.017966 -0.025497 0 0 255
0.095094 0.017966 -0.080936 255 0 0
