ply
format ascii 1.0
element vertex 1254
property float x
property float y
property float z
property uchar red
property uchar green
property uchar blue
end_header
-0.070301 -0.907335 0.054032 0 127 127
0.058860 0.701896 -0.109286 153 0 76
0.122464 0.796984 -0.002777 153 0 76
0.113509 0.309824 0.239041 0 127 127
0.079827 -0.254437 -0.242757 0 127 127
-0.052178 0.638235 0.126285 153 0 76
0.110111 0.059317 -0.187896 0 127 127
-0.129892 0.826364 0.044339 153 0 76
-0.084867 -0.262384 0.210322 0 127 127
-0.071378 -0.796344 -0.118762 0 127 127
0.069111 0.853234 -0.103010 153 0 76
0.175756 0.335807 -0.076314 0 127 127
0.177923 0.312404 -0.062323 0 127 127
-0.036637 0.620652 0.079091 76 153 0
0.017237 -0.208460 0.271592 0 127 127
-0.106720 0.094845 0.242953 0 127 127
0.113570 0.132147 0.172221 0 127 127
-0.087661 0.281258 -0.222217 0 127 127
0.092132 -0.241178 -0.275386 0 127 127
0.021676 -0.665368 0.204242 0 127 127
0.175199 0.112300 0.055708 0 127 127
0.024000 0.994271 0.122283 153 0 76
0.055954 -0.713406 -0.154483 0 127 127
-0.077798 0.833833 -0.090184 153 0 76
0.107574 0.755838 0.094414 153 0 76
-0.058531 -0.279246 -0.290703 0 127 127
0.141795 -0.834279 -0.086485 0 127 127
0.038071 -0.041848 0.324872 0 127 127
0.091480 -0.686268 0.126323 0 127 127
-0.114470 0.196660 0.152305 0 127 127
-0.133936 -0.444877 0.008884 0 127 127
-0.135603 -0.395722 -0.169597 0 127 127
0.106261 -0.157417 -0.192318 0 127 127
0.103048 0.507107 0.046627 76 153 0
0.144446 -0.696539 -0.116791 0 127 127
0.101366 -0.038395 -0.206227 0 127 127
0.044382 0.275436 -0.238213 0 127 127
-0.104941 0.736755 -0.049097 153 0 76
-0.114620 -0.748320 -0.069706 0 127 127
0.115656 0.716975 0.083881 153 0 76
-0.109650 -0.800717 0.122344 0 127 127
-0.118926 0.038917 -0.141413 0 127 127
-0.063979 0.451256 -0.047229 0 127 127
0.064894 0.757600 -0.106245 153 0 76
0.102461 -0.440400 0.170873 0 127 127
0.077021 -0.468004 0.189551 0 127 127
-0.078805 0.787980 0.111379 153 0 76
-0.091575 -0.156490 -0.264379 0 127 127
0.043288 -0.709205 -0.200254 0 127 127
0.094221 -0.754978 -0.163950 0 127 127
-0.053865 0.420603 -0.055295 0 127 127
-0.052430 0.596132 -0.078422 76 153 0
-0.005637 0.525741 -0.030646 76 153 0
-0.016708 0.230870 -0.260430 0 127 127
-0.145504 -0.907335 0.004791 0 127 127
-0.068553 -0.470830 -0.198496 0 127 127
0.062614 0.460367 -0.099717 76 153 0
-0.134889 0.971408 0.031669 153 0 76
0.167154 0.422595 0.018480 76 153 0
0.111109 -0.220224 -0.179490 0 127 127
-0.057007 0.245813 -0.292062 0 127 127
0.116217 -0.106605 0.160820 0 127 127
0.123091 0.301554 -0.162884 0 127 127
-0.031043 0.475918 0.178167 76 153 0
-0.126827 -0.674425 -0.056189 0 127 127
-0.112107 0.499826 0.054908 76 153 0
-0.135334 0.859465 -0.037552 153 0 76
0.016114 0.227846 -0.299848 0 127 127
-0.000565 -0.763024 -0.192575 0 127 127
-0.018557 0.716795 -0.120352 153 0 76
0.178103 0.473203 -0.069882 76 153 0
0.033217 0.958072 0.135208 153 0 76
0.094111 -0.813629 0.083489 0 127 127
0.107952 0.219168 0.246558 0 127 127
-0.152614 0.325750 0.132231 0 127 127
-0.094784 0.504241 0.080271 76 153 0
0.014954 0.189104 0.269269 0 127 127
0.141076 -0.791848 0.089231 0 127 127
0.047397 0.524125 -0.127442 76 153 0
0.165752 0.462163 -0.099072 76 153 0
-0.158054 -0.091977 0.090930 0 127 127
0.098646 0.739256 0.065352 153 0 76
0.100924 -0.734645 0.154686 0 127 127
-0.009824 0.519214 0.124737 76 153 0
-0.044355 0.994271 0.041828 153 0 76
-0.115858 -0.321858 0.130162 0 127 127
0.069738 -0.369985 0.217638 0 127 127
0.079064 -0.084860 -0.295709 0 127 127
0.117773 -0.542768 -0.194708 0 127 127
0.108880 0.856835 0.030473 153 0 76
-0.169965 0.478084 -0.011755 76 153 0
-0.069732 0.179292 -0.299242 0 127 127
0.142508 0.152322 0.178947 0 127 127
0.015384 -0.763728 0.182181 0 127 127
0.121252 0.028228 0.150888 0 127 127
-0.166791 0.476316 0.026611 76 153 0
-0.064643 -0.511016 -0.191995 0 127 127
-0.059352 -0.534418 0.181241 0 127 127
-0.024920 0.109420 -0.332701 0 127 127
-0.040277 -0.373235 0.267524 0 127 127
0.050652 -0.634283 -0.175668 0 127 127
0.097561 -0.619339 -0.193858 0 127 127
0.117428 0.556687 -0.090831 76 153 0
0.025870 -0.092673 -0.298470 0 127 127
-0.142148 -0.025463 -0.161551 0 127 127
0.124605 -0.211269 -0.218758 0 127 127
-0.075287 -0.367165 0.253202 0 127 127
0.150802 -0.280080 0.141355 0 127 127
0.088616 0.151878 0.276024 0 127 127
0.025537 0.358763 -0.002030 76 0 153
-0.061834 0.518145 -0.134578 76 153 0
-0.030458 0.572418 -0.090910 76 153 0
0.076492 0.994271 0.047152 153 0 76
0.141051 -0.538871 0.005011 0 127 127
-0.127522 -0.314119 0.081656 0 127 127
-0.125510 -0.088105 0.105572 0 127 127
0.026874 -0.306021 0.285595 0 127 127
0.119749 0.614790 -0.027107 76 153 0
0.142255 -0.251048 0.041415 0 127 127
0.167271 0.110280 0.097119 0 127 127
-0.067742 -0.149903 0.241904 0 127 127
0.081876 -0.741116 -0.130037 0 127 127
0.020315 0.631941 -0.099298 76 153 0
-0.162678 -0.320269 -0.052827 0 127 127
0.177021 0.021819 0.010190 0 127 127
-0.007965 -0.715686 0.029394 76 0 153
0.079102 -0.002858 0.237712 0 127 127
-0.136275 0.384959 0.176855 0 127 127
0.071991 0.525741 0.006848 76 0 153
-0.164309 -0.384397 0.004445 0 127 127
0.016369 -0.764500 0.010443 76 0 153
0.147141 0.066761 0.019885 0 127 127
-0.095327 0.974227 -0.107961 153 0 76
-0.160486 -0.604578 -0.031409 0 127 127
-0.151393 -0.511505 0.100150 0 127 127
0.154109 0.432607 0.037627 76 153 0
-0.081876 0.387648 -0.094524 76 153 0
0.052892 0.413699 -0.151982 0 127 127
-0.002905 -0.527421 0.104694 76 0 153
0.068249 0.165677 0.301322 0 127 127
0.147595 0.585459 -0.003856 153 0 76
0.134732 -0.631433 0.139960 0 127 127
0.025214 -0.907335 -0.036754 0 127 127
-0.025006 -0.740882 -0.194269 0 127 127
0.068682 0.207432 0.256076 0 127 127
-0.136597 -0.062218 -0.047999 0 127 127
-0.133072 0.321131 -0.194799 0 127 127
0.162617 -0.354481 0.092493 0 127 127
0.149164 0.234083 0.018212 0 127 127
-0.085974 -0.192598 0.263610 0 127 127
0.064498 -0.456007 -0.210884 0 127 127
0.005231 -0.907335 -0.050081 0 127 127
0.177521 0.145563 -0.036758 0 127 127
-0.042528 0.509558 -0.054793 76 0 153
-0.118602 0.785937 0.069579 153 0 76
-0.007376 0.911128 -0.146813 153 0 76
0.024830 -0.602118 0.180958 0 127 127
0.178225 0.229422 -0.042067 0 127 127
-0.120832 0.994271 0.003240 153 0 76
-0.150991 -0.058924 0.123717 0 127 127
0.001804 -0.002777 -0.340099 0 127 127
-0.077714 0.401793 0.145003 0 127 127
0.084360 0.984219 0.112941 153 0 76
0.052425 -0.244883 -0.304299 0 127 127
-0.084365 -0.026727 -0.277373 0 127 127
-0.008006 -0.052405 0.071067 76 0 153
0.077184 -0.331850 0.265002 0 127 127
0.037379 0.258188 -0.248593 0 127 127
-0.035595 -0.146490 0.314833 0 127 127
0.083227 -0.034297 -0.239567 0 127 127
-0.076397 0.939557 -0.122487 153 0 76
0.174831 -0.143136 -0.022556 0 127 127
0.016501 -0.216054 0.128183 76 0 153
-0.166989 -0.118396 0.015459 0 127 127
0.140034 0.311734 0.187553 0 127 127
0.168737 -0.482778 0.044506 0 127 127
-0.149675 -0.249964 -0.129972 0 127 127
-0.154286 -0.747311 0.053174 0 127 127
-0.086547 -0.151562 0.208935 0 127 127
0.113279 0.571708 0.086979 153 0 76
0.100548 0.232309 0.203956 0 127 127
-0.134278 0.298246 0.182486 0 127 127
-0.132026 0.882022 -0.048449 153 0 76
0.015809 0.386750 0.118489 0 127 127
-0.114024 -0.184571 -0.150367 0 127 127
0.034416 -0.362751 -0.281037 0 127 127
-0.116094 -0.856974 0.099187 0 127 127
-0.131389 0.455078 0.073095 76 153 0
-0.170209 0.257266 0.037751 0 127 127
-0.002383 -0.369840 0.129102 76 0 153
0.053028 -0.674733 -0.165019 0 127 127
-0.138885 0.733338 0.001319 153 0 76
0.011927 0.958991 0.138011 153 0 76
0.128339 0.402771 -0.007261 0 127 127
-0.159980 0.046594 0.089217 0 127 127
-0.078942 -0.737417 0.117636 0 127 127
0.127484 -0.010136 0.128656 0 127 127
0.023290 0.396182 -0.014740 76 0 153
-0.111509 -0.389219 0.142972 0 127 127
0.050384 0.695608 0.130353 153 0 76
0.104664 0.265851 0.195176 0 127 127
0.126083 0.010178 0.134006 0 127 127
-0.128631 -0.409214 0.069204 0 127 127
-0.026790 -0.543884 -0.240084 0 127 127
-0.167483 0.007217 0.031318 0 127 127
0.160578 -0.300747 0.106680 0 127 127
0.002763 0.245672 0.244757 0 127 127
0.141582 -0.286698 -0.055751 0 127 127
-0.022214 0.608401 0.085065 76 153 0
0.067103 -0.044883 -0.265546 0 127 127
-0.127505 -0.020236 0.100209 0 127 127
0.163666 -0.181773 0.097901 0 127 127
0.081861 0.119866 -0.243768 0 127 127
-0.099713 0.356944 -0.157274 0 127 127
-0.123825 0.310992 0.125135 0 127 127
0.112641 0.506435 0.021525 76 153 0
0.068914 -0.740616 0.131114 0 127 127
0.086813 0.788285 0.111395 153 0 76
-0.132739 0.476421 0.102026 76 153 0
-0.073089 -0.620637 -0.159490 0 127 127
-0.093371 0.558074 -0.059868 76 153 0
0.034265 0.587811 0.135070 153 0 76
-0.010839 0.012412 -0.304623 0 127 127
-0.090270 -0.819770 0.136207 0 127 127
-0.099507 0.816236 0.094464 153 0 76
0.135825 -0.049211 0.096891 0 127 127
0.051460 0.686141 0.060453 76 0 153
0.109077 -0.812257 -0.139426 0 127 127
0.053430 0.367391 0.118498 0 127 127
-0.090820 0.097529 -0.268600 0 127 127
0.175917 0.072192 0.038071 0 127 127
-0.107181 0.375220 0.085059 0 127 127
-0.125844 -0.515070 -0.179065 0 127 127
-0.137888 -0.126115 -0.012510 0 127 127
-0.084831 0.389696 0.170109 0 127 127
-0.145323 -0.672260 0.098552 0 127 127
0.148472 -0.064518 0.156398 0 127 127
-0.088985 -0.000226 0.206828 0 127 127
0.179610 0.291751 -0.031839 0 127 127
0.173392 -0.226736 0.019028 0 127 127
0.169851 0.168999 -0.096676 0 127 127
0.058918 0.077848 0.268001 0 127 127
0.028820 0.460739 -0.080811 0 127 127
0.010329 -0.789481 -0.007601 76 0 153
0.152314 -0.346619 0.134443 0 127 127
0.105055 0.481052 -0.051042 76 153 0
0.121218 -0.627474 -0.103006 0 127 127
0.049797 -0.106986 -0.288282 0 127 127
0.056701 0.581136 -0.081305 76 153 0
0.080167 -0.907335 0.100800 0 127 127
0.172044 -0.101726 0.058651 0 127 127
0.055886 -0.218449 -0.268681 0 127 127
0.127196 -0.186231 0.123504 0 127 127
0.000068 -0.215574 0.308168 0 127 127
0.151204 -0.148602 -0.154241 0 127 127
0.046454 -0.525128 -0.242790 0 127 127
0.134640 0.422472 -0.032085 76 153 0
-0.013565 0.690584 0.136738 153 0 76
0.097245 0.245765 0.263559 0 127 127
-0.005349 0.401976 0.144303 0 127 127
0.115423 -0.559605 0.184579 0 127 127
-0.074630 0.631101 -0.080193 76 153 0
-0.159520 -0.582956 0.043012 0 127 127
0.129654 -0.647575 0.072971 0 127 127
0.106513 -0.847544 0.123580 0 127 127
0.167075 -0.679559 0.029138 0 127 127
-0.167812 -0.052859 0.014965 0 127 127
-0.113330 0.432202 0.096798 76 153 0
0.113657 0.457023 0.090507 76 153 0
-0.102781 -0.165580 0.172133 0 127 127
-0.128954 -0.075679 0.088685 0 127 127
0.003340 0.310593 -0.258378 0 127 127
0.131234 -0.238279 -0.203795 0 127 127
0.002162 0.501617 -0.084951 0 127 127
-0.082990 -0.739648 -0.169917 0 127 127
0.149227 0.449415 0.091001 76 153 0
-0.099726 0.404263 -0.144830 0 127 127
-0.067157 -0.001658 0.244479 0 127 127
-0.014403 0.217109 -0.304501 0 127 127
-0.015952 -0.133641 0.284144 0 127 127
-0.016551 0.563223 -0.125472 76 153 0
0.139548 -0.507230 -0.048458 0 127 127
0.033076 0.507000 0.057630 76 0 153
-0.130302 -0.281398 -0.076617 0 127 127
-0.051406 -0.788862 0.125743 0 127 127
0.009124 0.513100 0.140351 76 153 0
0.166382 -0.831150 -0.015897 0 127 127
0.133852 -0.498225 0.080038 0 127 127
0.006042 -0.907335 0.127220 0 127 127
-0.043730 0.368873 0.113666 0 127 127
-0.150021 0.197026 -0.145016 0 127 127
0.117523 0.004870 -0.237780 0 127 127
0.132414 -0.430635 0.093019 0 127 127
-0.114869 0.365611 0.203763 0 127 127
-0.013981 0.409438 0.115684 76 153 0
-0.011903 -0.680687 0.163353 0 127 127
0.144856 -0.116267 -0.033190 0 127 127
0.089890 0.512156 -0.075234 76 153 0
-0.141581 0.244512 0.012532 0 127 127
0.100200 0.151934 -0.267192 0 127 127
0.151060 0.451300 0.044988 76 153 0
0.179022 0.367661 -0.055795 0 127 127
0.141732 -0.461960 -0.173502 0 127 127
0.157673 -0.777855 -0.069928 0 127 127
0.167846 -0.731153 -0.014027 0 127 127
0.090987 0.822321 0.108192 153 0 76
-0.164115 -0.346240 0.015152 0 127 127
-0.131970 0.482012 -0.012723 76 153 0
0.161325 -0.825967 0.034703 0 127 127
0.161024 -0.404211 -0.107347 0 127 127
-0.134983 0.494506 -0.095992 76 153 0
-0.080266 0.425788 -0.084117 0 127 127
-0.045943 0.422896 -0.017173 0 127 127
0.072434 -0.739244 0.172727 0 127 127
-0.087856 0.514954 0.107543 76 153 0
-0.109438 0.166606 -0.240254 0 127 127
0.026397 0.501444 0.104493 76 153 0
-0.086263 0.631941 -0.037063 76 153 0
0.143357 0.377935 0.069411 0 127 127
0.134455 -0.235959 0.187549 0 127 127
0.027183 0.606637 -0.095285 76 153 0
0.148927 0.269588 0.028850 0 127 127
-0.035160 0.407468 0.123332 76 153 0
-0.127804 -0.706429 -0.043550 0 127 127
-0.097983 0.239298 0.249860 0 127 127
-0.003205 0.346069 0.015844 76 0 153
-0.006981 -0.640207 0.079618 76 0 153
-0.120986 -0.122153 -0.128949 0 127 127
-0.158612 -0.312165 0.073381 0 127 127
-0.154166 -0.277795 0.099405 0 127 127
0.116690 -0.674315 0.154704 0 127 127
0.169911 0.012287 -0.086144 0 127 127
-0.172825 0.411678 0.022567 0 127 127
-0.140196 0.044288 -0.005751 0 127 127
-0.090432 0.252074 -0.270993 0 127 127
0.143213 0.161972 0.067971 0 127 127
0.079803 -0.474008 -0.240429 0 127 127
-0.126912 0.054323 0.192867 0 127 127
-0.112740 -0.146606 -0.156103 0 127 127
0.136178 0.072403 -0.199897 0 127 127
0.030156 0.492773 -0.080258 0 127 127
0.037712 0.167709 -0.319539 0 127 127
-0.119249 0.563223 -0.030502 76 153 0
-0.086714 -0.907335 -0.011223 0 127 127
0.091233 -0.871093 0.129053 0 127 127
-0.027112 0.525741 0.027409 76 153 0
0.156453 -0.700840 -0.095186 0 127 127
-0.047994 0.556902 -0.048767 76 0 153
-0.146547 0.265004 -0.157858 0 127 127
0.015540 -0.852652 -0.170669 0 127 127
-0.068440 0.680042 0.030853 76 0 153
0.097387 0.600101 -0.002098 76 153 0
0.111724 0.257575 -0.250444 0 127 127
0.181431 0.366736 -0.018004 0 127 127
-0.136115 0.713477 -0.031622 153 0 76
0.139705 0.260109 0.093623 0 127 127
-0.076977 0.646396 -0.006306 76 0 153
0.140720 -0.580343 0.001653 0 127 127
-0.008495 0.474306 -0.039672 76 0 153
-0.131541 -0.319730 -0.183699 0 127 127
-0.072639 0.816029 0.116111 153 0 76
-0.004427 -0.399045 -0.238884 0 127 127
-0.049719 0.994271 -0.055115 153 0 76
0.092858 -0.813629 -0.008829 0 127 127
0.140337 -0.606015 -0.146295 0 127 127
0.032590 -0.036722 -0.335088 0 127 127
-0.133726 -0.107773 -0.068328 0 127 127
0.020962 0.350146 0.219974 0 127 127
0.139267 -0.578833 -0.037418 0 127 127
-0.128966 0.099252 -0.108518 0 127 127
-0.135679 0.494506 -0.060255 76 153 0
0.010774 0.691049 0.113175 153 0 76
-0.101891 0.447228 -0.157573 76 153 0
-0.116254 -0.006251 -0.148812 0 127 127
0.080814 0.004569 -0.244086 0 127 127
-0.072431 -0.800988 0.107558 0 127 127
-0.034733 -0.644567 -0.176954 0 127 127
0.144494 0.989336 -0.009582 153 0 76
0.151659 0.378470 -0.008387 0 127 127
0.173331 0.032888 -0.069492 0 127 127
-0.165830 -0.000058 0.055275 0 127 127
-0.023833 0.524352 0.138537 76 153 0
-0.021921 0.645348 -0.119909 153 0 76
0.150401 0.358727 -0.029714 0 127 127
0.011294 -0.587844 -0.195617 0 127 127
-0.138570 0.810697 0.003709 153 0 76
0.011490 0.170857 0.274962 0 127 127
-0.131508 0.326535 -0.107881 0 127 127
-0.135415 0.147557 0.065748 0 127 127
0.101183 0.581965 -0.050748 76 153 0
-0.156315 -0.441564 -0.087019 0 127 127
0.122806 -0.806363 0.045416 0 127 127
-0.020619 -0.469543 -0.220581 0 127 127
-0.061368 0.471832 0.169406 76 153 0
0.169793 0.445255 -0.089946 76 153 0
0.007443 0.856835 0.045606 153 0 76
-0.133437 0.457023 0.012188 76 153 0
-0.108099 -0.103382 0.229310 0 127 127
-0.047097 0.025870 0.316389 0 127 127
0.145845 -0.078755 -0.023586 0 127 127
-0.165675 -0.031541 -0.062368 0 127 127
-0.086837 -0.076781 0.209539 0 127 127
0.116282 0.652620 -0.092324 153 0 76
0.068191 0.602665 -0.053256 76 0 153
-0.050658 0.255890 0.278436 0 127 127
-0.039121 -0.359857 -0.240788 0 127 127
-0.132147 0.344532 0.187984 0 127 127
-0.161738 -0.446775 -0.043893 0 127 127
0.171083 0.318415 -0.099353 0 127 127
0.060863 0.420716 -0.053977 0 127 127
0.073188 0.748143 -0.130167 153 0 76
-0.139964 0.241935 0.039633 0 127 127
0.180614 0.409954 0.026293 0 127 127
0.118600 -0.646990 0.158753 0 127 127
-0.094228 0.164385 0.198827 0 127 127
-0.016499 -0.406507 0.263262 0 127 127
0.182329 0.466837 0.050422 76 153 0
-0.041617 -0.070574 0.322066 0 127 127
-0.084698 0.869105 -0.116116 153 0 76
0.072862 -0.287683 0.234132 0 127 127
0.052621 0.875792 0.129427 153 0 76
0.110437 0.844459 0.090682 153 0 76
-0.149618 -0.554532 0.106980 0 127 127
0.141421 0.000765 -0.076915 0 127 127
0.138030 -0.754788 -0.020428 0 127 127
0.137486 0.273765 -0.114508 0 127 127
-0.083403 0.678227 -0.117111 153 0 76
-0.093393 -0.289116 0.250420 0 127 127
-0.070442 0.719400 -0.032534 76 0 153
-0.014596 0.772667 0.111614 153 0 76
0.064765 -0.813629 -0.038992 76 0 153
0.115259 0.832679 0.034311 153 0 76
0.171117 -0.316603 -0.046833 0 127 127
-0.119061 -0.531148 0.107245 0 127 127
-0.132018 -0.637052 0.001053 0 127 127
0.135367 -0.403522 -0.086515 0 127 127
0.160190 -0.174771 0.115775 0 127 127
-0.083032 0.994271 -0.006265 153 0 76
0.079958 0.416667 0.077347 0 127 127
-0.147051 -0.466898 -0.130541 0 127 127
0.080441 0.389953 -0.179003 0 127 127
-0.036860 -0.808223 -0.176880 0 127 127
-0.062451 -0.220269 0.292892 0 127 127
-0.095715 0.468959 0.044950 76 153 0
0.011945 0.217834 0.011047 76 0 153
-0.113815 0.505425 -0.060043 76 153 0
0.059291 -0.428036 -0.260016 0 127 127
-0.004463 0.355045 0.150718 0 127 127
-0.150864 0.390427 0.139701 0 127 127
0.022179 0.894508 0.136661 153 0 76
-0.021800 -0.533074 -0.205608 0 127 127
-0.041181 0.525741 -0.098220 76 153 0
-0.063997 0.924989 -0.130649 153 0 76
0.011484 0.720091 0.138069 153 0 76
-0.102619 -0.100770 0.174042 0 127 127
0.161783 0.494506 -0.042511 76 153 0
0.002620 0.405535 -0.139970 0 127 127
-0.057705 0.123416 0.304096 0 127 127
-0.117628 0.319552 -0.227036 0 127 127
-0.121487 0.380723 -0.056551 0 127 127
-0.056594 0.290364 -0.272757 0 127 127
-0.076111 0.479574 -0.082729 76 153 0
-0.057408 0.525741 0.005014 76 0 153
-0.074994 0.719338 0.012107 76 0 153
0.075134 -0.643449 -0.158666 0 127 127
0.064739 0.482012 -0.166836 76 153 0
0.038408 -0.763653 -0.188200 0 127 127
0.176905 0.108850 -0.039019 0 127 127
0.110663 -0.659187 -0.113944 0 127 127
0.114636 -0.130472 0.231293 0 127 127
-0.077084 -0.064049 0.226664 0 127 127
0.053867 -0.539160 0.227872 0 127 127
-0.070366 0.739182 -0.127114 153 0 76
-0.109267 0.551426 0.081745 76 153 0
-0.139675 0.422819 -0.019875 0 127 127
-0.060827 0.690477 -0.131962 153 0 76
-0.130196 0.259666 0.101919 0 127 127
-0.094207 0.534175 -0.057850 76 153 0
-0.170563 0.271227 -0.044027 0 127 127
0.094882 -0.236249 0.207149 0 127 127
-0.014629 -0.250563 0.261544 0 127 127
-0.020965 -0.614432 -0.224396 0 127 127
0.152465 -0.203134 -0.148248 0 127 127
-0.154653 0.131414 0.119211 0 127 127
-0.058142 -0.667524 -0.201676 0 127 127
0.169159 -0.657165 -0.008898 0 127 127
-0.032595 0.856835 0.045896 153 0 76
-0.150833 -0.006420 0.133328 0 127 127
-0.162512 -0.410475 0.028969 0 127 127
0.021815 -0.250658 0.261648 0 127 127
-0.019561 0.719400 0.011603 76 0 153
-0.131574 -0.538032 -0.040553 0 127 127
0.147690 0.175369 -0.041592 0 127 127
-0.130028 0.563223 0.005961 153 0 76
0.123002 -0.318655 -0.142562 0 127 127
0.081154 -0.149279 0.232484 0 127 127
-0.118444 0.482012 -0.124706 76 153 0
0.053857 -0.436524 -0.220276 0 127 127
-0.001556 0.427784 -0.041379 76 0 153
-0.016551 0.385842 0.002369 76 0 153
-0.078338 0.482012 -0.133180 76 153 0
0.116969 0.098866 0.163599 0 127 127
0.143641 -0.305707 -0.015611 0 127 127
0.064979 -0.087918 0.258828 0 127 127
-0.053997 -0.049409 0.307632 0 127 127
-0.087319 -0.273736 0.260497 0 127 127
-0.015242 0.106014 0.324211 0 127 127
-0.022128 0.856835 -0.099024 153 0 76
0.068894 0.640686 0.043080 76 0 153
0.166147 -0.051588 -0.102290 0 127 127
-0.158959 -0.826987 -0.002549 0 127 127
-0.065485 -0.136662 0.292945 0 127 127
-0.137819 0.627438 -0.018676 153 0 76
-0.020357 0.713764 0.135844 153 0 76
-0.114251 0.128651 -0.160090 0 127 127
0.135720 -0.009143 0.099769 0 127 127
0.009329 0.716450 0.075882 76 0 153
-0.097161 -0.405270 0.175164 0 127 127
-0.027663 0.838148 -0.118883 153 0 76
0.155732 0.168096 0.141891 0 127 127
0.104862 0.305274 -0.204789 0 127 127
0.168764 -0.470469 -0.055680 0 127 127
-0.100378 -0.210178 0.240213 0 127 127
-0.028830 -0.199069 0.270777 0 127 127
0.073158 0.591272 -0.099905 153 0 76
-0.103041 0.525741 -0.074024 76 153 0
-0.130303 0.146639 0.094634 0 127 127
0.100595 -0.476891 -0.174213 0 127 127
0.067815 0.597260 0.063517 76 153 0
0.093187 0.259740 -0.226149 0 127 127
-0.020912 0.090214 0.292250 0 127 127
0.112447 -0.397387 0.163179 0 127 127
-0.086757 0.853203 0.105277 153 0 76
-0.044930 0.717520 -0.111731 153 0 76
-0.133372 0.125993 0.075945 0 127 127
0.109584 0.036958 -0.188618 0 127 127
0.085043 0.638282 -0.006017 76 0 153
0.040483 0.361953 0.134808 0 127 127
0.029760 0.094860 -0.334506 0 127 127
-0.126275 -0.663851 0.132533 0 127 127
0.076547 0.770063 0.088044 153 0 76
0.041553 0.207305 -0.308749 0 127 127
0.003314 -0.190922 -0.323283 0 127 127
0.015593 0.189839 -0.278210 0 127 127
-0.101668 -0.026210 -0.249891 0 127 127
0.135118 -0.518895 -0.080345 0 127 127
-0.054629 0.469754 -0.099683 76 153 0
0.144230 -0.566957 -0.149597 0 127 127
0.150962 -0.907335 -0.051791 0 127 127
-0.089501 0.457023 -0.087465 76 153 0
0.096770 0.417958 0.068339 0 127 127
0.009339 0.389557 -0.128600 0 127 127
0.008157 -0.730347 -0.200262 0 127 127
0.060147 0.703971 0.053788 76 0 153
0.128807 0.935054 -0.075601 153 0 76
-0.128373 0.195204 0.106142 0 127 127
-0.018637 0.418388 -0.074590 0 127 127
0.132244 -0.146119 0.107747 0 127 127
-0.087837 0.441453 0.120062 76 153 0
-0.109626 0.290886 -0.241601 0 127 127
0.124923 -0.038663 -0.145679 0 127 127
0.034628 0.364732 -0.213968 0 127 127
-0.112306 0.422835 -0.019338 0 127 127
-0.121138 0.482012 0.034707 76 153 0
-0.131524 -0.582974 -0.031351 0 127 127
0.134136 0.433235 -0.089405 76 153 0
0.167136 -0.657654 0.033055 0 127 127
0.072044 -0.345914 0.221411 0 127 127
-0.095152 -0.907335 -0.037541 0 127 127
0.059180 0.876017 -0.135969 153 0 76
-0.005859 0.976705 0.137753 153 0 76
-0.137270 -0.706767 0.103552 0 127 127
-0.132365 0.172413 -0.093825 0 127 127
-0.117499 -0.486591 -0.197451 0 127 127
-0.052767 0.460275 0.052481 0 127 127
0.016228 0.065404 -0.301628 0 127 127
0.145036 -0.019715 0.039346 0 127 127
0.062464 -0.907335 0.132022 0 127 127
-0.033879 0.699833 -0.116309 153 0 76
0.050327 -0.813629 0.121942 0 127 127
0.162783 -0.143622 0.105117 0 127 127
-0.026306 0.929464 -0.144320 153 0 76
0.098683 0.029003 -0.268048 0 127 127
0.115056 0.471916 0.144371 76 153 0
-0.038745 0.415803 0.083377 0 127 127
0.039455 -0.282599 -0.298424 0 127 127
-0.092821 -0.041748 0.254554 0 127 127
0.010711 -0.669106 -0.214187 0 127 127
-0.061851 -0.813629 0.022868 76 0 153
0.044653 0.477748 0.098803 76 153 0
0.133113 0.188722 0.199584 0 127 127
0.165119 -0.624920 -0.070290 0 127 127
0.056508 -0.309328 -0.288136 0 127 127
0.174862 0.084935 0.055654 0 127 127
-0.153531 -0.789134 -0.053413 0 127 127
-0.015647 0.494311 0.027125 76 0 153
-0.154036 -0.203358 0.105025 0 127 127
0.154073 0.274821 -0.159681 0 127 127
0.108206 -0.708092 -0.105633 0 127 127
-0.025585 0.469349 -0.078826 0 127 127
0.050897 -0.520109 0.233524 0 127 127
0.025459 -0.003860 -0.303513 0 127 127
-0.091122 -0.033278 -0.211469 0 127 127
0.062228 0.226912 0.290993 0 127 127
0.060628 -0.804919 -0.130638 0 127 127
-0.013116 0.994271 0.092780 153 0 76
-0.148723 -0.253110 0.123598 0 127 127
-0.102054 -0.127368 -0.247940 0 127 127
0.062647 -0.145011 -0.315587 0 127 127
0.097106 0.923621 -0.112756 153 0 76
0.062728 0.856835 0.049838 153 0 76
0.146066 0.157107 -0.180314 0 127 127
-0.048747 0.528219 -0.047786 76 0 153
0.173302 0.478247 0.038136 76 153 0
-0.001024 0.346714 0.222503 0 127 127
-0.021903 0.582836 0.135641 153 0 76
0.142604 -0.380893 -0.173316 0 127 127
0.077022 0.410775 -0.118316 0 127 127
0.152907 -0.260925 -0.144708 0 127 127
0.001586 0.556697 -0.073028 76 0 153
0.069961 0.994271 -0.070763 153 0 76
-0.038973 -0.520261 0.194898 0 127 127
0.139523 -0.199228 0.065831 0 127 127
-0.050502 0.687843 0.126979 153 0 76
0.001342 -0.023658 0.048231 76 0 153
0.180957 0.304501 -0.013223 0 127 127
-0.111782 0.115185 0.232609 0 127 127
0.094486 0.116253 0.212840 0 127 127
0.155240 0.463834 0.103512 76 153 0
-0.131604 -0.070209 -0.082993 0 127 127
-0.073391 -0.422128 0.241930 0 127 127
-0.106673 -0.377726 0.227567 0 127 127
0.162537 -0.585985 0.078064 0 127 127
-0.133811 0.914188 0.034879 153 0 76
-0.017792 -0.907335 -0.029485 0 127 127
0.113791 -0.907335 -0.109981 0 127 127
0.069746 0.500997 -0.118137 76 153 0
-0.019970 0.200023 -0.311904 0 127 127
-0.129012 -0.612532 -0.061981 0 127 127
-0.083529 0.026824 0.270043 0 127 127
0.007597 -0.154875 -0.293033 0 127 127
0.161340 -0.728397 0.061764 0 127 127
-0.161883 -0.298955 -0.065803 0 127 127
0.048128 0.286045 0.265369 0 127 127
0.009123 0.001230 0.037767 76 0 153
0.118270 0.217991 0.163244 0 127 127
0.121585 0.249439 0.224978 0 127 127
-0.128369 -0.505882 -0.073635 0 127 127
-0.041464 -0.212160 0.263757 0 127 127
-0.048509 -0.414090 0.214841 0 127 127
-0.073342 0.509884 0.019016 76 0 153
0.148049 0.176038 0.165617 0 127 127
0.124002 -0.813302 0.110188 0 127 127
-0.004751 -0.017810 0.295485 0 127 127
0.054594 -0.813629 0.093771 0 127 127
-0.087408 0.592842 0.069536 76 153 0
0.037143 0.368497 -0.124696 0 127 127
0.169796 -0.509003 0.021772 0 127 127
-0.160615 0.251917 0.098715 0 127 127
-0.166373 -0.194204 0.009504 0 127 127
-0.129594 -0.647580 -0.140406 0 127 127
0.169184 0.230768 -0.103961 0 127 127
0.138316 -0.601177 0.040615 0 127 127
-0.113104 0.186812 -0.165272 0 127 127
-0.051445 -0.172000 0.265565 0 127 127
-0.078717 -0.389634 0.245674 0 127 127
-0.007631 0.569470 0.047726 76 153 0
0.135973 0.052348 0.102110 0 127 127
-0.108170 -0.875802 0.105839 0 127 127
0.002374 -0.552046 -0.204846 0 127 127
-0.149463 -0.742105 -0.080345 0 127 127
0.134720 -0.364632 -0.092744 0 127 127
-0.061094 0.041094 0.254241 0 127 127
-0.101439 -0.122638 -0.185605 0 127 127
0.017247 0.422774 -0.021467 0 127 127
-0.046915 -0.613411 0.209970 0 127 127
-0.015531 -0.556697 0.229390 0 127 127
-0.107879 0.946357 0.083553 153 0 76
0.087108 -0.183131 0.274846 0 127 127
-0.010239 0.569470 0.083280 76 153 0
-0.168574 -0.088422 -0.005303 0 127 127
0.083170 0.129974 0.283077 0 127 127
-0.034490 0.134807 0.283102 0 127 127
0.141640 -0.309872 0.041033 0 127 127
-0.033567 -0.907335 -0.040000 0 127 127
0.050689 -0.465385 -0.255268 0 127 127
-0.079428 0.350649 0.156978 0 127 127
-0.014652 -0.335179 0.279591 0 127 127
-0.067848 0.994271 -0.092125 153 0 76
-0.021773 0.905300 0.135658 153 0 76
-0.105899 -0.907335 0.086347 0 127 127
-0.022154 -0.268603 0.256368 0 127 127
0.145701 0.357997 -0.075147 0 127 127
-0.046490 0.098209 0.273887 0 127 127
0.165235 0.438116 -0.068581 76 153 0
0.117991 -0.253391 -0.161856 0 127 127
-0.065072 0.569470 -0.064534 76 153 0
0.171579 -0.338672 -0.035070 0 127 127
0.002186 -0.219648 -0.280079 0 127 127
-0.030401 0.420614 0.045911 0 127 127
0.009065 0.020939 -0.339002 0 127 127
0.012947 -0.564690 0.092815 76 0 153
0.167577 -0.426314 0.061061 0 127 127
0.171852 -0.260265 0.036922 0 127 127
0.177793 0.294959 0.051716 0 127 127
0.008255 -0.851489 0.162722 0 127 127
-0.138193 0.774335 0.006577 153 0 76
0.172177 -0.282139 -0.036168 0 127 127
0.052724 -0.423705 0.214451 0 127 127
-0.070320 0.285190 0.265739 0 127 127
0.146103 -0.137544 -0.002439 0 127 127
0.124741 -0.580036 -0.175907 0 127 127
-0.170753 0.349868 0.046915 0 127 127
-0.043985 -0.481798 0.241720 0 127 127
0.068603 0.024904 0.299964 0 127 127
0.131021 0.084691 0.201837 0 127 127
-0.156402 0.112730 -0.121400 0 127 127
-0.131588 -0.308292 -0.067418 0 127 127
-0.061956 0.186431 0.254226 0 127 127
0.043093 -0.094995 0.321621 0 127 127
0.179947 0.219122 0.003677 0 127 127
0.003788 0.544079 0.064058 76 0 153
-0.020656 0.507000 0.060024 76 0 153
-0.044375 0.994254 -0.125631 153 0 76
-0.120296 -0.614990 -0.162370 0 127 127
-0.078195 0.824517 -0.121106 153 0 76
0.097696 -0.159055 0.203191 0 127 127
0.054821 0.010049 -0.282170 0 127 127
-0.079345 -0.762450 -0.120582 0 127 127
0.101192 0.382776 -0.081028 0 127 127
0.037608 0.692520 -0.143889 153 0 76
-0.082737 0.631941 0.047656 76 153 0
0.165823 -0.595941 0.059256 0 127 127
0.120062 -0.536867 0.118526 0 127 127
0.125033 -0.907335 -0.004602 0 127 127
0.163036 -0.906188 0.006345 0 127 127
0.129597 0.115692 -0.214784 0 127 127
0.114790 -0.343368 -0.167999 0 127 127
-0.022370 0.443722 0.148073 76 153 0
-0.093369 -0.640009 -0.133020 0 127 127
-0.083479 0.044672 0.216972 0 127 127
-0.122955 -0.371367 -0.201624 0 127 127
0.096323 -0.833337 0.134394 0 127 127
0.158954 -0.885197 0.026487 0 127 127
0.172914 -0.185786 0.035338 0 127 127
0.128601 -0.381886 -0.120965 0 127 127
0.044737 0.094607 0.286706 0 127 127
0.078465 -0.380091 -0.217952 0 127 127
0.164192 -0.069047 -0.111605 0 127 127
0.129099 0.634766 0.065636 153 0 76
-0.122126 -0.553216 -0.174973 0 127 127
0.083713 -0.197125 -0.289035 0 127 127
-0.007768 0.171257 0.002842 76 0 153
-0.141523 0.214546 -0.017144 0 127 127
-0.075019 -0.583555 -0.166812 0 127 127
0.136100 -0.162367 -0.097402 0 127 127
-0.077721 0.327884 -0.196640 0 127 127
0.118722 0.525741 0.048572 76 153 0
0.153890 -0.746346 0.078818 0 127 127
-0.052154 -0.630059 -0.213059 0 127 127
0.075170 0.425788 -0.084815 0 127 127
0.037592 0.541454 0.011414 76 0 153
-0.081180 -0.283424 -0.277555 0 127 127
-0.123566 0.482012 0.084571 76 153 0
-0.161106 -0.236747 -0.074209 0 127 127
-0.125758 0.409433 -0.124965 0 127 127
0.157539 -0.818419 -0.059265 0 127 127
-0.029980 -0.608208 -0.186807 0 127 127
-0.153496 -0.846410 -0.037565 0 127 127
-0.142486 -0.888888 -0.057672 0 127 127
-0.083660 0.425788 0.147808 76 153 0
0.128194 -0.309211 0.199612 0 127 127
-0.122066 -0.398555 0.193747 0 127 127
0.149173 -0.449967 0.140896 0 127 127
0.045323 0.356030 -0.158575 0 127 127
0.092514 0.600590 -0.033742 76 153 0
-0.128924 0.164940 0.103231 0 127 127
-0.014204 0.151982 0.279224 0 127 127
-0.139108 -0.557378 -0.147158 0 127 127
-0.112282 -0.533769 -0.128113 0 127 127
-0.113663 0.407793 0.034267 0 127 127
0.003254 -0.154331 0.319046 0 127 127
-0.139345 0.138013 0.030316 0 127 127
0.005103 0.787207 -0.123180 153 0 76
-0.139027 0.156755 -0.048761 0 127 127
-0.115397 -0.382343 -0.217952 0 127 127
0.076568 -0.431063 0.198411 0 127 127
0.089675 -0.178254 -0.226429 0 127 127
-0.073574 0.498125 -0.085147 76 153 0
0.048043 0.618945 0.077692 76 153 0
-0.024768 0.744849 -0.144523 153 0 76
0.091288 -0.417138 -0.245449 0 127 127
0.045745 -0.334374 0.237959 0 127 127
0.090460 -0.276816 -0.223739 0 127 127
-0.153948 -0.106721 -0.121031 0 127 127
0.013018 0.716608 0.112879 153 0 76
-0.077443 0.709854 0.112425 153 0 76
-0.028989 -0.860393 0.156536 0 127 127
0.013760 -0.132568 -0.329933 0 127 127
-0.087310 0.525741 0.076349 76 153 0
-0.170046 0.068030 0.002881 0 127 127
0.089214 -0.775110 0.153510 0 127 127
-0.111148 -0.500437 -0.138511 0 127 127
-0.136989 0.838613 -0.024980 153 0 76
-0.092845 -0.798062 0.085448 0 127 127
0.169550 -0.384772 0.050049 0 127 127
-0.083906 -0.663768 -0.187284 0 127 127
-0.130626 0.582469 0.042567 153 0 76
0.143313 0.430013 -0.107968 0 127 127
-0.131045 -0.430489 0.173015 0 127 127
-0.075529 0.540083 0.003130 0 127 127
-0.033279 -0.215033 -0.275869 0 127 127
0.156931 0.228058 0.140238 0 127 127
-0.158584 -0.644246 -0.054246 0 127 127
0.116234 0.809123 0.031957 153 0 76
-0.043876 0.896278 -0.138983 153 0 76
0.114913 0.737731 -0.044405 153 0 76
0.140798 -0.095839 0.065396 0 127 127
0.122215 0.024927 -0.156817 0 127 127
0.180704 0.266571 -0.009970 0 127 127
0.131858 -0.537351 -0.098457 0 127 127
-0.059720 -0.907335 -0.041911 0 127 127
-0.073364 -0.671090 0.137932 0 127 127
0.147061 0.768539 0.000195 153 0 76
0.005515 -0.479313 0.212584 0 127 127
-0.002509 0.273759 0.005978 76 0 153
-0.120435 -0.417051 0.110911 0 127 127
0.025288 -0.623068 0.213631 0 127 127
-0.159810 -0.028963 -0.094652 0 127 127
0.100341 -0.850434 -0.136637 0 127 127
0.086007 -0.583127 0.201353 0 127 127
-0.098777 0.607420 0.095415 153 0 76
-0.110518 -0.133724 0.224223 0 127 127
0.150562 0.345638 0.015819 0 127 127
0.103475 0.006008 0.250834 0 127 127
-0.087257 0.712352 -0.114153 153 0 76
-0.122038 0.330245 -0.140922 0 127 127
-0.115226 -0.459611 -0.136838 0 127 127
-0.033877 -0.309221 0.282829 0 127 127
-0.170613 0.104739 0.001328 0 127 127
-0.138171 0.200130 -0.181312 0 127 127
0.096892 0.452592 0.158017 76 153 0
-0.052978 -0.156099 0.308210 0 127 127
0.134422 -0.430327 0.183379 0 127 127
-0.019813 0.038081 0.326130 0 127 127
-0.037816 -0.774487 0.175376 0 127 127
0.055013 -0.202240 0.263425 0 127 127
-0.102166 0.509811 0.029377 76 153 0
0.006254 0.215535 -0.010559 76 0 153
0.023357 -0.217536 -0.314909 0 127 127
-0.138219 -0.724466 0.097476 0 127 127
-0.148878 -0.609962 0.107212 0 127 127
-0.132066 -0.390663 0.049982 0 127 127
0.114999 0.589092 0.006478 153 0 76
-0.130563 0.819477 -0.051979 153 0 76
0.141312 -0.364151 0.036431 0 127 127
-0.132580 -0.041743 -0.079104 0 127 127
-0.166520 0.190111 0.064281 0 127 127
-0.085916 -0.813629 -0.007179 0 127 127
0.174365 -0.157482 0.017809 0 127 127
-0.117178 0.440167 -0.145842 76 153 0
0.076560 0.994271 0.014333 153 0 76
-0.143248 -0.150123 -0.153957 0 127 127
-0.165397 -0.051658 -0.063149 0 127 127
-0.018924 -0.466146 0.249507 0 127 127
0.102396 0.305938 -0.261808 0 127 127
-0.152946 -0.638882 0.082972 0 127 127
0.036374 0.320488 0.195345 0 127 127
-0.157871 -0.525831 0.063787 0 127 127
0.124719 0.323393 -0.229064 0 127 127
-0.106415 -0.002103 0.233343 0 127 127
-0.044504 0.482012 -0.164028 76 153 0
0.011548 -0.254427 0.142085 76 0 153
0.146806 0.108627 0.034157 0 127 127
0.049671 0.846476 0.130649 153 0 76
-0.129913 0.362064 -0.115926 0 127 127
0.053266 -0.595840 -0.183470 0 127 127
-0.028072 -0.291746 -0.259535 0 127 127
-0.064446 0.425009 0.098640 76 153 0
0.021611 -0.185063 -0.285355 0 127 127
0.112119 0.582864 0.041892 153 0 76
-0.011577 -0.870633 0.156634 0 127 127
0.121813 0.055216 -0.230076 0 127 127
0.074812 -0.568831 0.167368 0 127 127
-0.056292 0.706511 -0.058300 76 0 153
-0.129865 -0.113085 0.081042 0 127 127
0.123705 0.710042 -0.082650 153 0 76
-0.096104 -0.729843 0.097304 0 127 127
-0.131192 -0.606190 0.022866 0 127 127
0.109970 -0.337148 0.235998 0 127 127
-0.062069 0.580442 0.122188 153 0 76
-0.164357 -0.161864 -0.058134 0 127 127
0.139335 -0.444857 0.172103 0 127 127
0.014726 -0.684774 0.056788 76 0 153
-0.134568 -0.286810 -0.176327 0 127 127
-0.164142 0.016887 -0.074537 0 127 127
-0.125353 0.525741 -0.002799 76 153 0
0.134892 0.659567 -0.060910 153 0 76
0.109887 0.513737 -0.100659 76 153 0
0.070851 0.482012 0.119251 76 153 0
-0.116783 0.088239 0.215099 0 127 127
-0.115491 0.678000 -0.082892 153 0 76
0.098226 -0.465470 0.171261 0 127 127
-0.140219 0.103610 -0.017491 0 127 127
-0.123044 0.451295 -0.093397 76 153 0
0.134280 -0.108969 0.102145 0 127 127
0.065890 0.500419 0.045942 0 127 127
-0.130832 -0.574792 0.036522 0 127 127
-0.029923 -0.802763 0.169859 0 127 127
-0.082749 0.421679 -0.042721 0 127 127
0.098161 0.563223 -0.091110 76 153 0
-0.073529 0.555423 -0.027825 76 0 153
-0.073883 -0.421656 -0.205736 0 127 127
-0.000006 0.412027 0.102858 0 127 127
0.177565 0.458629 -0.015010 76 153 0
0.133818 0.434023 0.080559 76 153 0
-0.137202 -0.092210 -0.031588 0 127 127
0.121454 -0.504112 -0.133468 0 127 127
-0.135758 0.128763 -0.071796 0 127 127
0.128261 0.971190 -0.076713 153 0 76
-0.015136 0.605457 0.111543 153 0 76
0.096133 0.482012 -0.150254 76 153 0
0.148601 -0.244983 -0.158939 0 127 127
-0.090807 0.835026 -0.074365 153 0 76
-0.100230 0.425788 0.029135 0 127 127
0.175267 0.044758 -0.052145 0 127 127
-0.118526 -0.598831 0.091124 0 127 127
-0.157336 0.283122 0.116380 0 127 127
0.063657 0.445757 0.048853 0 127 127
0.025989 -0.293775 -0.260572 0 127 127
0.139841 0.323145 0.096718 0 127 127
0.152898 0.245713 0.153105 0 127 127
0.140275 -0.619023 -0.010246 0 127 127
0.176830 0.217797 0.052554 0 127 127
0.151992 -0.008128 -0.156450 0 127 127
0.068640 0.551726 -0.026640 76 0 153
0.146364 0.040061 -0.037203 0 127 127
-0.128922 0.413960 0.093280 76 153 0
0.122777 -0.335867 0.210966 0 127 127
0.137550 -0.636993 -0.055924 0 127 127
0.008438 0.991242 0.076000 153 0 76
-0.057017 0.434158 0.047044 0 127 127
0.152290 0.313947 0.157130 0 127 127
-0.110640 -0.287005 0.220854 0 127 127
-0.027782 0.801299 -0.144126 153 0 76
-0.167457 -0.006249 -0.038489 0 127 127
0.141831 0.745239 -0.044158 153 0 76
0.119537 -0.168159 -0.230654 0 127 127
0.107250 0.539466 0.036485 76 153 0
0.069065 0.716862 -0.052118 76 0 153
0.082604 0.655660 0.114625 153 0 76
-0.055877 -0.053689 -0.269752 0 127 127
-0.154355 -0.062899 -0.121490 0 127 127
0.094265 -0.043326 -0.274250 0 127 127
0.118901 -0.570658 -0.121424 0 127 127
0.162774 -0.247197 0.098384 0 127 127
0.066397 0.543253 0.022796 0 127 127
0.123976 0.245721 -0.158178 0 127 127
0.022961 0.533696 -0.070525 76 0 153
-0.012756 -0.473248 0.211673 0 127 127
-0.027334 0.500327 -0.131691 76 153 0
-0.167131 0.315840 -0.078108 0 127 127
0.139057 -0.429486 -0.062893 0 127 127
-0.013433 -0.145847 -0.292180 0 127 127
-0.111672 -0.729406 0.137026 0 127 127
-0.051258 -0.430202 -0.259528 0 127 127
0.075344 -0.008397 0.291531 0 127 127
0.140984 -0.373020 0.169428 0 127 127
-0.008539 0.856835 0.071059 153 0 76
0.118251 -0.752200 0.133448 0 127 127
0.101636 -0.534664 -0.211082 0 127 127
0.093132 -0.123130 0.211906 0 127 127
0.164705 0.408613 0.118954 0 127 127
0.103086 0.422676 -0.024895 0 127 127
-0.032388 -0.907335 -0.135506 0 127 127
0.097605 0.161678 0.208154 0 127 127
-0.047842 0.659708 0.057069 76 0 153
-0.099655 0.482012 -0.139066 76 153 0
-0.092143 0.132367 0.203008 0 127 127
-0.019890 0.289658 0.263803 0 127 127
0.000916 0.416869 -0.085193 0 127 127
-0.035018 0.856835 0.085898 153 0 76
0.079058 0.479936 -0.032182 0 127 127
-0.140754 0.340434 0.044998 0 127 127
0.126170 0.482012 -0.121099 76 153 0
-0.005618 0.475458 -0.115431 76 153 0
-0.006377 0.466153 0.168920 76 153 0
0.149024 0.355850 -0.177642 0 127 127
-0.162314 -0.580064 -0.002642 0 127 127
-0.158840 -0.787094 -0.017653 0 127 127
-0.129059 -0.432363 0.065158 0 127 127
0.005172 0.115009 0.026806 76 0 153
0.109034 0.187561 0.183750 0 127 127
-0.161977 -0.194871 -0.072429 0 127 127
-0.052744 0.442541 -0.168830 76 153 0
0.008965 0.617593 -0.122672 153 0 76
0.099586 0.482012 0.138576 76 153 0
-0.139277 0.973409 -0.001659 153 0 76
0.051960 -0.813629 -0.052422 76 0 153
0.146517 0.130943 -0.052856 0 127 127
0.030792 0.625071 0.071430 76 0 153
0.127279 0.231657 0.137594 0 127 127
-0.152212 -0.220175 -0.122932 0 127 127
-0.108601 -0.222938 0.226575 0 127 127
-0.066206 0.233641 -0.257839 0 127 127
-0.037217 0.333312 0.232378 0 127 127
0.020922 0.784607 0.111838 153 0 76
-0.137130 0.005309 -0.051036 0 127 127
0.131671 0.680760 -0.068687 153 0 76
-0.158644 0.421483 0.035746 0 127 127
0.029174 -0.397156 0.227532 0 127 127
0.170779 -0.362440 0.034293 0 127 127
0.092277 -0.453073 0.227246 0 127 127
0.012800 0.665215 -0.084685 76 0 153
0.002723 0.364038 -0.137254 0 127 127
-0.082015 -0.349397 0.206886 0 127 127
-0.095472 -0.608841 0.128230 0 127 127
0.067450 0.345238 0.223591 0 127 127
0.123929 0.022296 0.215657 0 127 127
-0.121062 -0.719983 -0.064897 0 127 127
-0.166402 -0.092115 0.030289 0 127 127
0.167738 -0.620536 0.031423 0 127 127
-0.131757 -0.613011 -0.145462 0 127 127
-0.040888 -0.230401 0.259980 0 127 127
-0.164053 -0.208362 -0.053348 0 127 127
0.104211 -0.907335 0.069732 0 127 127
0.140308 0.915419 -0.047835 153 0 76
0.137603 -0.046960 -0.096090 0 127 127
0.156179 -0.586598 0.112801 0 127 127
-0.012209 0.604196 -0.083706 76 0 153
0.040357 0.510862 -0.145968 76 153 0
-0.084471 -0.238656 0.211324 0 127 127
0.168651 -0.331377 0.061338 0 127 127
0.101607 0.581965 -0.008180 76 153 0
0.106342 0.460725 -0.160317 76 153 0
0.140593 0.032699 -0.083739 0 127 127
0.007659 0.715993 -0.085362 76 0 153
-0.072001 0.112637 0.286737 0 127 127
-0.115221 -0.158369 0.137954 0 127 127
-0.088889 0.569470 -0.001932 76 153 0
0.112064 0.381095 0.182357 0 127 127
-0.080027 0.072495 -0.232552 0 127 127
0.095057 0.275811 -0.276488 0 127 127
0.008804 0.636246 0.113434 153 0 76
-0.058627 -0.723287 0.136961 0 127 127
-0.087846 0.855794 0.068964 153 0 76
0.027270 0.719400 0.000915 76 0 153
-0.077182 -0.260149 -0.233186 0 127 127
-0.135672 -0.197843 -0.036423 0 127 127
0.124080 -0.416900 -0.135503 0 127 127
-0.094310 -0.318677 0.189078 0 127 127
-0.104844 0.736596 -0.096769 153 0 76
-0.101890 -0.079613 0.176176 0 127 127
0.008213 0.499094 0.126006 76 153 0
0.114771 0.497500 -0.014601 76 153 0
0.044825 0.336462 -0.186442 0 127 127
0.053537 0.556535 -0.068119 0 127 127
-0.137990 0.025566 -0.040227 0 127 127
-0.050721 0.427242 -0.149556 76 153 0
0.127464 0.427257 -0.128496 76 153 0
0.100808 -0.303852 0.192988 0 127 127
0.069846 -0.663606 0.191720 0 127 127
-0.030434 -0.055171 -0.299376 0 127 127
0.040670 0.889034 0.134227 153 0 76
-0.136986 0.016014 0.046417 0 127 127
0.039457 0.831854 -0.117323 153 0 76
-0.082874 0.613799 -0.037633 76 153 0
-0.090893 0.191149 0.206299 0 127 127
0.166938 0.453752 0.055210 76 153 0
-0.032587 0.092723 -0.334516 0 127 127
0.144345 0.900451 -0.030086 153 0 76
-0.103943 0.497372 -0.077593 76 153 0
-0.157378 -0.324629 -0.088534 0 127 127
0.137267 -0.084432 -0.095752 0 127 127
0.145674 0.935904 -0.019994 153 0 76
-0.154569 0.016838 0.115190 0 127 127
0.075884 -0.054327 -0.299843 0 127 127
0.056866 0.503610 0.114261 76 153 0
0.070718 -0.907335 -0.044296 0 127 127
0.046790 0.983766 -0.140910 153 0 76
0.144593 0.290512 -0.077325 0 127 127
0.175928 0.131679 0.049876 0 127 127
-0.106848 -0.187182 0.230025 0 127 127
0.032643 -0.741576 0.184902 0 127 127
-0.079217 0.549237 0.111063 76 153 0
0.147688 0.802327 -0.004697 153 0 76
-0.122668 0.705403 -0.071040 153 0 76
-0.089097 0.522534 -0.096942 76 153 0
0.142232 -0.129099 -0.064087 0 127 127
0.127954 0.164225 -0.142410 0 127 127
0.000383 -0.340652 0.127260 76 0 153
-0.084671 0.084561 0.215476 0 127 127
0.112609 0.037359 0.236812 0 127 127
0.063529 0.089724 -0.315793 0 127 127
-0.057132 0.494506 -0.140304 76 153 0
-0.010611 0.719400 -0.053380 76 0 153
0.041328 0.114546 0.287677 0 127 127
-0.083791 0.752686 0.107553 153 0 76
0.069116 -0.364359 -0.270283 0 127 127
0.132715 0.422366 0.025425 76 153 0
-0.062492 -0.646002 0.195573 0 127 127
-0.148119 -0.865748 0.041732 0 127 127
-0.101357 -0.385258 0.170870 0 127 127
-0.082099 -0.214919 -0.278886 0 127 127
-0.003951 0.525741 -0.094527 76 153 0
-0.143725 0.210640 -0.164712 0 127 127
-0.161904 -0.513121 -0.027968 0 127 127
-0.046756 0.806479 -0.110975 153 0 76
0.005742 0.651182 -0.123096 153 0 76
-0.161755 -0.565426 0.009916 0 127 127
-0.139754 0.228009 -0.049900 0 127 127
-0.013665 0.457023 -0.122111 76 153 0
0.167368 0.343132 0.110749 0 127 127
0.061258 0.694090 -0.062194 76 0 153
0.122892 -0.813629 0.013176 0 127 127
0.079829 0.563223 -0.095082 76 153 0
0.066343 0.564263 0.046406 76 0 153
-0.004784 0.829503 0.137894 153 0 76
0.131534 -0.074533 -0.122099 0 127 127
0.134709 0.436705 0.109922 76 153 0
-0.170298 0.164652 -0.069747 0 127 127
-0.151913 -0.485281 0.099006 0 127 127
0.039076 0.474682 0.178166 76 153 0
0.139931 -0.501254 -0.173033 0 127 127
-0.150103 -0.792468 0.055105 0 127 127
-0.133616 0.476734 -0.110142 76 153 0
0.040307 0.430303 0.004405 76 0 153
0.178067 0.115489 0.012660 0 127 127
-0.094533 0.261159 0.255460 0 127 127
0.132924 0.050361 0.197085 0 127 127
0.143471 0.673995 0.027467 153 0 76
-0.106150 0.157321 -0.180640 0 127 127
-0.080613 0.198002 0.276434 0 127 127
-0.088047 0.703533 -0.077962 153 0 76
0.158159 -0.643555 0.095831 0 127 127
0.094083 0.397785 -0.090293 0 127 127
-0.086219 0.479527 0.060296 76 153 0
-0.129235 -0.800000 0.093580 0 127 127
-0.080085 0.581965 -0.048050 76 153 0
0.055702 0.811369 -0.137410 153 0 76
-0.110552 0.365406 -0.136165 0 127 127
0.144696 0.209838 0.062543 0 127 127
-0.011973 0.482012 0.141200 76 153 0
-0.082797 0.261686 -0.230146 0 127 127
0.132952 0.122490 0.198555 0 127 127
-0.153392 -0.413835 -0.104642 0 127 127
-0.022389 0.425788 -0.181099 76 153 0
0.130589 0.681368 0.062040 153 0 76
0.066040 0.292802 -0.271488 0 127 127
0.056789 0.482012 0.155423 76 153 0
0.156234 0.494506 0.016122 76 153 0
0.016938 0.842142 0.112363 153 0 76
0.063520 0.407917 0.121616 0 127 127
0.108857 0.677549 -0.059026 153 0 76
0.011922 0.611269 0.098095 76 153 0
0.040774 0.569470 -0.022577 76 0 153
-0.094490 -0.107793 0.251055 0 127 127
-0.002472 0.642309 0.075728 76 0 153
-0.131905 -0.540207 0.024839 0 127 127
0.123147 -0.126692 0.139466 0 127 127
0.067148 0.175715 -0.267120 0 127 127
-0.152947 0.143508 -0.142602 0 127 127
-0.169051 0.192020 0.043738 0 127 127
0.141035 -0.234802 0.054496 0 127 127
0.017698 -0.700026 -0.168446 0 127 127
-0.169226 0.146985 -0.041261 0 127 127
0.116797 0.975944 0.082394 153 0 76
-0.161060 -0.099565 0.074491 0 127 127
-0.129837 0.278923 0.104187 0 127 127
-0.113476 0.843176 -0.013776 153 0 76
0.090625 -0.060254 -0.226389 0 127 127
-0.113762 0.047565 -0.229973 0 127 127
-0.003225 -0.907335 0.057186 0 127 127
0.080169 0.782842 -0.125752 153 0 76
0.114649 0.770410 0.035783 153 0 76
0.039316 0.791872 0.134405 153 0 76
-0.043248 -0.032880 -0.330042 0 127 127
0.132064 -0.341056 -0.109685 0 127 127
0.110648 -0.031568 -0.248299 0 127 127
0.115648 -0.295986 -0.167003 0 127 127
0.131789 -0.846410 -0.100114 0 127 127
0.158487 0.096795 0.130842 0 127 127
0.143700 -0.182963 0.030298 0 127 127
-0.027695 -0.725795 -0.159657 0 127 127
0.012289 -0.723372 0.039715 76 0 153
-0.126817 0.175253 -0.119890 0 127 127
0.125846 -0.040424 0.210357 0 127 127
-0.140410 -0.434513 -0.153081 0 127 127
0.002461 -0.072630 0.070498 76 0 153
-0.070273 -0.633905 -0.203999 0 127 127
-0.172155 0.262861 -0.017492 0 127 127
0.099455 0.994271 0.053920 153 0 76
-0.020430 0.776348 -0.145094 153 0 76
-0.113656 0.439152 -0.105632 76 153 0
0.021899 0.171660 0.309387 0 127 127
0.069702 0.577026 -0.050233 76 153 0
0.083665 0.466336 0.150088 76 153 0
-0.085970 -0.292291 -0.217251 0 127 127
-0.109223 -0.618621 0.167578 0 127 127
0.044411 0.681731 -0.075048 76 0 153
0.140805 -0.431821 0.032359 0 127 127
0.139369 -0.016454 0.078441 0 127 127
0.146479 0.965212 0.004620 153 0 76
-0.062465 -0.202617 -0.305440 0 127 127
0.058800 0.088100 -0.277463 0 127 127
-0.153889 -0.558378 -0.092614 0 127 127
0.084490 0.343540 0.167102 0 127 127
-0.170068 0.464439 0.001715 76 153 0
0.009805 -0.047461 0.060379 76 0 153
-0.068682 0.111885 0.243197 0 127 127
-0.040986 -0.033379 0.280449 0 127 127
-0.048801 -0.773612 -0.139858 0 127 127
0.121599 0.665160 0.003795 153 0 76
0.148935 -0.676892 -0.114207 0 127 127
-0.090266 0.542764 -0.111844 76 153 0
-0.140717 -0.448894 0.142311 0 127 127
0.136750 -0.640686 0.049129 0 127 127
0.084518 -0.103812 -0.288856 0 127 127
0.114317 0.407018 0.125049 0 127 127
-0.154481 0.447025 0.065900 76 153 0
-0.045778 -0.481467 -0.250281 0 127 127
0.085949 -0.215296 0.276358 0 127 127
-0.032501 0.411532 0.105309 0 127 127
-0.170837 0.294242 -0.044002 0 127 127
-0.132493 -0.559226 -0.019239 0 127 127
-0.057729 0.510796 -0.033600 76 0 153
-0.067285 -0.019012 -0.253358 0 127 127
-0.052212 0.457023 -0.130774 76 153 0
-0.132532 -0.763619 -0.106461 0 127 127
-0.140861 0.200984 0.016678 0 127 127
-0.021416 0.202364 0.301631 0 127 127
0.171681 -0.388077 0.014583 0 127 127
-0.160953 -0.455231 0.045807 0 127 127
0.065784 0.109139 0.259176 0 127 127
0.008330 -0.882146 0.155558 0 127 127
0.153665 -0.374589 -0.138442 0 127 127
-0.025983 -0.501788 0.203033 0 127 127
0.026529 -0.809081 -0.141629 0 127 127
0.125996 0.242817 -0.224889 0 127 127
0.053005 0.417045 0.142676 76 153 0
0.130191 0.326539 0.131124 0 127 127
0.139732 -0.132489 0.069111 0 127 127
0.129200 0.276124 0.132669 0 127 127
-0.121585 0.161594 -0.136816 0 127 127
0.124967 0.953450 0.071747 153 0 76
-0.145756 0.423132 -0.000389 0 127 127
0.028033 -0.147893 0.316751 0 127 127
-0.111924 -0.134386 0.150025 0 127 127
0.141907 -0.372238 -0.033600 0 127 127
-0.143440 0.337532 -0.001123 0 127 127
0.047158 0.546027 -0.140949 76 153 0
-0.088379 -0.233072 0.259320 0 127 127
0.138110 -0.088780 0.182991 0 127 127
-0.134870 0.016788 0.174948 0 127 127
