ply
format ascii 1.0
element vertex 1277
property float x
property float y
property float z
property uchar red
property uchar green
property uchar blue
end_header
0.338810 0.033581 0.210167 127 127 0
0.526645 -0.032364 -0.210215 255 0 0
-0.599165 0.000300 0.015845 127 127 0
-0.831720 -0.023509 -0.040486 0 255 0
-0.663040 0.032343 0.012105 255 0 0
-0.179436 0.045168 -0.085163 255 0 0
-0.794619 0.055989 0.059217 0 0 255
-0.418994 0.001647 -0.125258 255 0 0
0.164205 0.008856 0.152961 127 127 0
-0.294729 0.017238 0.090691 127 127 0
-0.308169 -0.016020 -0.083753 255 0 0
0.489581 0.017935 0.329722 127 127 0
-0.307588 -0.043950 -0.021180 127 127 0
-0.374230 0.056358 -0.025953 255 0 0
-0.248291 -0.015441 -0.151934 255 0 0
-0.380026 -0.016020 -0.070472 255 0 0
-0.011947 -0.050494 0.153669 127 127 0
-0.184322 -0.043950 0.138179 127 127 0
-0.102370 0.000609 -0.130971 255 0 0
0.693088 -0.019939 0.347185 127 127 0
-0.486814 0.000685 -0.114493 255 0 0
0.081954 0.003430 -0.335898 255 0 0
-0.006860 0.029493 -0.141645 255 0 0
-0.194174 -0.016020 -0.080625 255 0 0
-0.138069 -0.016020 -0.097765 255 0 0
-0.814104 0.082411 0.072729 0 0 255
-0.524771 0.040324 -0.104166 255 0 0
0.361335 0.054840 -0.298640 255 0 0
-0.186485 0.017238 0.118376 127 127 0
-0.189553 0.000609 0.041536 127 127 0
0.214565 0.014587 -0.147629 255 0 0
-0.413330 -0.016020 0.000767 255 0 0
-0.235465 0.038387 -0.148604 255 0 0
-0.502703 -0.002978 0.007337 255 0 0
-0.286394 0.007332 0.139830 127 127 0
0.602489 -0.032364 -0.188271 255 0 0
0.091050 0.034601 -0.272862 255 0 0
-0.242505 -0.055141 0.083268 127 127 0
-0.072929 -0.014494 0.200093 127 127 0
0.614833 0.033581 0.318266 127 127 0
-0.049909 -0.066331 0.198364 127 127 0
0.431754 -0.010110 0.189854 127 127 0
-0.742942 0.054918 0.033931 0 0 255
-0.137357 -0.045798 0.203132 127 127 0
-0.888758 0.044983 0.050460 0 0 255
0.560146 -0.020293 -0.181935 255 0 0
0.803166 0.034794 -0.337344 255 0 0
-0.878225 -0.033162 -0.057067 0 255 0
0.418349 -0.032364 -0.272769 255 0 0
0.022522 -0.016692 -0.232773 255 0 0
-0.279226 0.017238 0.123441 127 127 0
-0.818831 0.000605 -0.005565 0 255 0
-0.408916 -0.055141 -0.009763 127 127 0
-0.372036 0.045168 -0.073046 255 0 0
0.157543 -0.005043 -0.255943 255 0 0
0.141016 -0.032364 -0.172529 255 0 0
0.770262 -0.037773 0.291326 127 127 0
-0.365347 0.043729 -0.158935 255 0 0
0.650606 0.046425 -0.323775 255 0 0
-0.288359 -0.055141 0.050441 127 127 0
0.426649 0.067549 -0.249705 255 0 0
0.054617 0.050936 -0.324112 255 0 0
-0.989225 -0.013540 -0.080729 0 255 0
-0.862398 0.034848 0.063420 0 0 255
0.801546 0.001901 -0.354348 255 0 0
0.270195 0.033581 0.218848 127 127 0
-0.205926 -0.055141 0.050405 127 127 0
-0.178638 0.056358 -0.160339 255 0 0
0.688923 0.034980 -0.207069 255 0 0
-0.558011 -0.044989 0.056331 127 127 0
-0.211192 -0.053475 0.012780 127 127 0
0.010994 -0.002702 0.128865 127 127 0
-0.074230 0.017752 -0.205826 255 0 0
0.495675 0.067549 -0.274597 255 0 0
-0.412384 -0.044989 0.122075 127 127 0
-0.166978 0.017238 0.123484 127 127 0
-0.156281 -0.016020 -0.050782 255 0 0
0.790077 -0.032364 -0.331495 255 0 0
-0.006798 -0.004743 -0.108641 255 0 0
0.089513 -0.017733 0.136535 127 127 0
-0.098056 0.010236 -0.188212 255 0 0
-0.886691 0.056132 0.074541 0 0 255
-0.250255 0.056358 -0.034239 255 0 0
-0.298814 0.056358 -0.001712 255 0 0
-0.410719 -0.044989 0.152557 127 127 0
-0.280234 -0.032018 0.137744 127 127 0
-0.443578 0.017238 0.040441 127 127 0
0.234223 0.067549 -0.247793 255 0 0
-0.237028 0.056358 -0.120925 255 0 0
-0.413484 -0.035116 0.166969 127 127 0
0.479075 0.033581 0.308070 127 127 0
-0.431637 -0.043950 0.065274 127 127 0
0.327023 0.014004 -0.164267 255 0 0
0.005549 0.022904 -0.128086 255 0 0
-0.132193 0.045168 -0.091213 255 0 0
-0.404396 0.029356 -0.097729 255 0 0
-0.190799 0.000609 0.062640 127 127 0
-0.121632 0.056358 -0.099369 255 0 0
-0.057542 -0.043950 0.091999 127 127 0
-0.797060 0.062304 0.074502 0 0 255
0.114045 0.022274 0.264714 127 127 0
0.709526 0.010887 -0.332565 255 0 0
-0.830284 0.000609 0.038361 0 0 255
-0.110347 0.021208 -0.199998 255 0 0
-0.021245 -0.066331 0.198594 127 127 0
0.459359 -0.066331 0.296647 127 127 0
0.098769 0.034532 -0.124227 255 0 0
-0.878475 -0.044012 -0.037388 0 255 0
0.625111 -0.066331 0.315222 127 127 0
0.449956 0.067549 -0.201966 255 0 0
0.773021 -0.007755 -0.346948 255 0 0
0.151078 -0.066331 0.162878 127 127 0
0.431930 -0.032364 -0.290900 255 0 0
-0.369400 0.056358 -0.053693 255 0 0
-0.457800 -0.026430 0.153519 127 127 0
-0.751574 -0.029793 -0.042446 0 255 0
-0.281156 -0.054355 -0.022943 127 127 0
-0.306136 -0.055141 0.043590 127 127 0
0.213515 -0.026172 -0.270043 255 0 0
-0.066591 0.045168 -0.102003 255 0 0
-0.347734 0.056358 -0.033007 255 0 0
0.083123 -0.064007 0.338167 127 127 0
0.102628 -0.066331 0.253992 127 127 0
0.105730 0.033581 0.152228 127 127 0
-0.565126 0.044129 0.005348 255 0 0
-0.088176 0.022512 -0.189806 255 0 0
-0.419435 0.056358 -0.032894 255 0 0
-0.318344 0.000609 0.030220 127 127 0
-0.083710 -0.055141 0.200221 127 127 0
0.384565 0.017342 -0.302103 255 0 0
0.224515 0.033581 0.190237 127 127 0
0.687167 -0.066331 0.334812 127 127 0
0.228088 -0.009499 0.164795 127 127 0
-0.270620 -0.043950 0.124384 127 127 0
-0.125287 -0.016020 -0.108757 255 0 0
0.360939 -0.032364 -0.238494 255 0 0
-0.017529 0.040815 -0.136727 255 0 0
0.062302 0.048007 -0.115492 255 0 0
-0.375258 0.001433 -0.124656 255 0 0
0.399964 0.021086 0.319833 127 127 0
-0.133269 0.056358 -0.185429 255 0 0
-0.251501 0.000609 0.052188 127 127 0
0.149955 0.010634 0.149966 127 127 0
0.719705 0.067549 -0.309822 255 0 0
-0.588139 -0.043238 0.013067 127 127 0
-0.948804 0.041738 0.082105 0 0 255
-0.265442 0.045168 -0.039055 255 0 0
-0.064319 0.052109 -0.204426 255 0 0
-0.111898 0.045168 -0.099656 255 0 0
0.801868 -0.015024 -0.352606 255 0 0
-0.605633 -0.040542 -0.055111 127 127 0
-0.499534 0.045168 0.017300 255 0 0
-0.387413 -0.032334 0.176365 127 127 0
0.703915 0.033581 0.294286 127 127 0
0.567746 -0.008183 0.199220 127 127 0
-0.432514 -0.013261 0.160870 127 127 0
0.015468 -0.018479 -0.117248 255 0 0
0.004398 0.052929 -0.129344 255 0 0
-0.217999 0.000609 0.067088 127 127 0
0.280361 0.061716 -0.158137 255 0 0
-0.159495 0.000609 -0.079091 255 0 0
0.424689 0.033581 0.314263 127 127 0
0.350895 0.067549 -0.277198 255 0 0
0.310472 0.067549 -0.201594 255 0 0
-0.218847 -0.016020 -0.120105 255 0 0
0.166485 -0.025636 -0.258313 255 0 0
0.445859 0.066824 -0.175449 255 0 0
-0.240030 -0.043950 0.109991 127 127 0
0.034158 0.003452 -0.234650 255 0 0
-0.378586 0.001563 0.119754 127 127 0
0.107653 -0.032364 -0.240956 255 0 0
-0.344363 0.040503 -0.174396 255 0 0
0.037759 -0.032364 -0.152335 255 0 0
-0.330965 -0.016020 -0.013284 255 0 0
0.271551 -0.032364 -0.200587 255 0 0
-0.780805 -0.031438 -0.027215 0 255 0
-0.171285 -0.016020 -0.057444 255 0 0
0.643478 -0.066331 0.294861 127 127 0
0.487802 0.067549 -0.197844 255 0 0
0.190380 -0.032364 -0.226667 255 0 0
0.141474 0.015950 0.266783 127 127 0
-0.716707 -0.020015 -0.017090 0 255 0
-0.318326 0.045168 0.026042 255 0 0
0.079555 -0.052173 0.134088 127 127 0
-0.695021 0.048809 0.074716 0 0 255
-0.387432 0.017238 0.070697 127 127 0
0.551479 0.049851 -0.180952 255 0 0
-0.458082 0.017238 0.027676 127 127 0
0.695144 -0.032364 -0.214188 255 0 0
-0.248541 0.000135 -0.176312 255 0 0
-0.090049 -0.025856 0.211020 127 127 0
-0.014713 -0.026664 0.240376 127 127 0
0.339257 0.033581 0.300185 127 127 0
-0.254973 0.045168 0.008775 255 0 0
-0.394953 0.000609 0.083955 127 127 0
0.212915 0.067549 -0.184820 255 0 0
-0.261545 -0.043950 -0.002330 127 127 0
0.135258 -0.036280 0.265215 127 127 0
0.674005 -0.032364 -0.314266 255 0 0
-0.242256 0.000609 0.120261 127 127 0
0.346595 0.033581 0.286387 127 127 0
0.240148 -0.032364 -0.165592 255 0 0
-0.109875 0.045168 -0.080816 255 0 0
0.454284 0.033581 0.238465 127 127 0
0.662703 0.033581 0.227646 127 127 0
-0.614596 -0.000264 0.037306 127 127 0
0.298989 -0.066331 0.291061 127 127 0
-0.462765 -0.016020 0.042854 255 0 0
-0.415668 0.034059 -0.154915 255 0 0
-0.839559 0.045765 0.025062 0 0 255
-0.479474 0.001268 -0.059628 255 0 0
-0.947082 -0.027875 -0.087187 0 255 0
0.525885 -0.018327 -0.178746 255 0 0
-0.803561 0.008086 0.000191 0 0 255
-0.749748 0.020607 0.037345 0 0 255
0.597558 -0.032364 -0.307428 255 0 0
-0.815942 -0.040576 -0.020310 0 255 0
0.797783 0.011764 -0.309884 255 0 0
-0.074149 0.045168 -0.086900 255 0 0
-0.251296 -0.042808 0.184202 127 127 0
0.715749 -0.013082 -0.215109 255 0 0
-0.916596 -0.012788 -0.047557 0 255 0
-0.933920 0.046765 0.091642 0 0 255
-0.155725 0.017238 0.142525 127 127 0
-0.519625 0.046173 -0.014429 255 0 0
0.338967 -0.066331 0.250754 127 127 0
-0.591059 0.020159 0.065856 255 0 0
-0.142018 0.017238 0.162599 127 127 0
-0.038123 0.001477 0.236473 127 127 0
0.047698 0.001063 0.299438 127 127 0
-0.364126 -0.043950 -0.013030 127 127 0
-0.429968 -0.006951 0.105437 127 127 0
-0.069825 0.000609 -0.123447 255 0 0
-0.073729 -0.043950 0.198900 127 127 0
-0.748495 0.076237 0.059960 0 0 255
0.059610 -0.017212 -0.333636 255 0 0
-0.332989 0.056358 -0.073727 255 0 0
0.023677 -0.027962 0.119777 127 127 0
0.796476 0.030625 0.354631 127 127 0
-0.843867 0.062779 0.046588 0 0 255
0.568534 -0.032364 -0.271746 255 0 0
0.544074 0.067549 -0.305532 255 0 0
0.067496 -0.032364 -0.176324 255 0 0
0.256385 0.033581 0.282893 127 127 0
0.048076 0.010739 0.328312 127 127 0
0.451530 0.033581 0.315254 127 127 0
-0.026513 -0.032364 -0.166980 255 0 0
0.248474 0.033581 0.268022 127 127 0
0.704458 -0.053927 0.229812 127 127 0
0.496140 0.053972 -0.177178 255 0 0
0.322390 0.067549 -0.244479 255 0 0
-0.760318 0.065396 0.051202 0 0 255
-0.491270 0.056358 -0.015677 255 0 0
-0.795328 -0.029800 -0.032211 0 255 0
0.032070 0.028928 0.248176 127 127 0
-0.338298 -0.036058 0.186446 127 127 0
0.582330 0.033581 0.300025 127 127 0
0.413614 0.067549 -0.223722 255 0 0
-0.236989 -0.005999 0.163500 127 127 0
-0.013846 -0.012964 -0.149278 255 0 0
-0.142825 0.017238 0.084578 127 127 0
0.781799 0.057746 -0.349306 255 0 0
-0.698604 0.052182 0.056218 0 0 255
0.484100 -0.015886 0.192191 127 127 0
-0.745494 0.000609 0.037716 0 0 255
-0.274155 0.043085 -0.184108 255 0 0
-0.553929 -0.042911 0.084214 127 127 0
0.288845 -0.021916 -0.286106 255 0 0
0.782110 -0.055087 0.309431 127 127 0
0.769267 0.067549 -0.278560 255 0 0
0.555150 -0.066331 0.285325 127 127 0
-0.813344 -0.032810 -0.006764 0 255 0
-0.291356 -0.043950 0.000084 127 127 0
0.578895 0.033581 0.263388 127 127 0
0.187021 -0.032364 -0.240850 255 0 0
-0.908874 0.000609 0.048312 0 0 255
-0.766848 0.021514 0.003817 0 0 255
-0.134445 0.033271 -0.182341 255 0 0
-0.665032 -0.004181 -0.057711 127 127 0
-0.356787 0.017238 0.009164 127 127 0
-0.650759 -0.042911 0.002006 127 127 0
-0.453022 -0.038137 0.093625 127 127 0
-0.739173 -0.049258 -0.036857 0 255 0
0.408867 -0.029294 0.187998 127 127 0
-0.203642 -0.045897 0.192080 127 127 0
0.357505 0.033581 0.311971 127 127 0
-0.355185 -0.055141 0.072414 127 127 0
-0.104468 0.056358 -0.068115 255 0 0
-0.393706 -0.043950 0.013048 127 127 0
0.656746 0.067549 -0.259441 255 0 0
0.177089 0.016895 -0.140755 255 0 0
0.082527 -0.012427 0.327977 127 127 0
0.019291 -0.066331 0.198191 127 127 0
0.672104 -0.066331 0.231306 127 127 0
-0.260890 0.045168 -0.017958 255 0 0
-0.144803 -0.024955 0.188110 127 127 0
-0.131744 0.000609 0.073491 127 127 0
-0.362053 -0.041380 0.175580 127 127 0
-0.088361 -0.041954 0.197520 127 127 0
-0.439778 -0.055141 -0.034251 127 127 0
-0.582775 0.004558 0.070208 127 127 0
-0.109176 0.000609 0.095751 127 127 0
0.047798 0.067549 -0.183842 255 0 0
0.558167 0.031498 -0.318340 255 0 0
0.663799 0.033581 0.329345 127 127 0
-0.147752 0.056358 -0.193217 255 0 0
-0.359370 0.017238 0.081530 127 127 0
0.266924 0.014225 0.297173 127 127 0
0.269926 -0.066331 0.217923 127 127 0
0.479372 -0.066331 0.193498 127 127 0
-0.498934 -0.036181 0.132667 127 127 0
0.424533 0.067549 -0.292819 255 0 0
-0.050847 0.056358 -0.086958 255 0 0
-0.571292 0.044129 -0.026987 255 0 0
-0.293867 0.017238 0.032116 127 127 0
0.746926 0.029215 -0.340441 255 0 0
0.361017 -0.016644 0.183328 127 127 0
0.642904 -0.032364 -0.255095 255 0 0
0.379198 -0.032364 -0.225911 255 0 0
-0.083682 0.056358 -0.138026 255 0 0
-0.073817 -0.015643 -0.217228 255 0 0
-0.260269 0.045168 -0.118790 255 0 0
-0.452868 -0.043950 -0.054042 127 127 0
-0.092668 0.007385 0.210583 127 127 0
0.275585 0.021614 0.172415 127 127 0
-0.100100 -0.030526 0.195563 127 127 0
0.317881 -0.032364 -0.270167 255 0 0
-0.108924 -0.016020 -0.146072 255 0 0
-0.049379 -0.022066 0.194140 127 127 0
0.101917 0.048489 -0.124928 255 0 0
-0.895407 -0.034037 -0.052549 0 255 0
-0.031560 -0.018966 -0.168632 255 0 0
-0.408445 0.044129 -0.137615 255 0 0
0.312101 -0.066331 0.266221 127 127 0
-0.820405 0.052289 0.073970 0 0 255
0.319447 0.017168 -0.291767 255 0 0
-0.152282 0.017238 0.097963 127 127 0
-0.333611 0.000609 -0.051900 255 0 0
-0.478829 0.011913 -0.047245 127 127 0
0.310569 -0.050162 0.305683 127 127 0
-0.061583 -0.016020 -0.168147 255 0 0
-0.189032 -0.055141 0.180356 127 127 0
-0.782625 0.045743 0.052146 0 0 255
0.046040 0.060744 -0.252149 255 0 0
0.436516 -0.036580 0.324399 127 127 0
0.056246 0.033581 0.195275 127 127 0
-0.452009 0.023798 -0.141054 255 0 0
0.311639 -0.002674 0.177464 127 127 0
-0.765910 -0.030976 -0.032722 0 255 0
-0.318870 -0.055141 0.006769 127 127 0
-0.047584 -0.055141 0.133335 127 127 0
0.251625 0.067549 -0.155290 255 0 0
-0.218088 0.009597 -0.175426 255 0 0
-0.535870 0.046121 0.008580 255 0 0
-0.429019 -0.043950 -0.012590 127 127 0
-0.802814 -0.081125 -0.063034 0 255 0
-0.420724 -0.016020 -0.017916 255 0 0
-0.389304 -0.000241 0.054970 255 0 0
-0.801239 -0.013759 0.005400 0 255 0
-0.773792 -0.032728 0.000247 0 255 0
0.104957 0.067549 -0.198791 255 0 0
-0.078678 -0.000847 -0.205108 255 0 0
-0.330529 0.016175 -0.037662 127 127 0
-0.780910 -0.013266 -0.021087 0 255 0
-0.655156 0.001930 -0.013787 127 127 0
-0.316727 -0.044989 0.159884 127 127 0
-0.016906 -0.012764 0.159030 127 127 0
0.086801 -0.016338 -0.283282 255 0 0
-0.049421 0.017494 -0.171573 255 0 0
-0.348743 0.000609 -0.053234 255 0 0
0.472830 -0.032364 -0.256829 255 0 0
-0.018599 0.018641 -0.137896 255 0 0
-0.450846 0.005110 -0.139498 255 0 0
0.037713 -0.032896 0.259532 127 127 0
-0.476693 0.001641 -0.085605 255 0 0
0.143230 0.011306 -0.133947 255 0 0
0.764482 -0.032364 -0.343675 255 0 0
-0.030485 -0.052764 0.173711 127 127 0
-0.728421 0.066326 0.054176 0 0 255
-0.282453 0.017238 -0.010096 127 127 0
-0.620275 0.010695 -0.032944 127 127 0
-0.222460 -0.043950 0.117274 127 127 0
0.654610 0.015164 -0.198312 255 0 0
-0.251737 -0.055141 -0.006323 127 127 0
-0.546113 -0.044989 0.005332 127 127 0
-0.854821 -0.025632 -0.040945 0 255 0
0.042051 -0.066331 0.231212 127 127 0
0.005475 0.067549 -0.207324 255 0 0
-0.099148 0.056358 -0.146077 255 0 0
-0.337801 0.000609 -0.001845 255 0 0
-0.183723 0.000609 0.028721 127 127 0
-0.056591 0.056358 -0.107490 255 0 0
-0.220403 0.056358 -0.053507 255 0 0
0.169082 0.067549 -0.183043 255 0 0
0.775125 -0.009235 0.298549 127 127 0
0.194310 0.015235 0.158765 127 127 0
0.089105 -0.019409 -0.314901 255 0 0
-0.484477 -0.016020 0.034020 255 0 0
0.121965 -0.014506 0.263657 127 127 0
-0.261834 -0.000429 0.172962 127 127 0
-0.140713 0.000609 -0.110753 255 0 0
-0.281937 0.056358 -0.099084 255 0 0
0.303681 0.067549 -0.170705 255 0 0
-0.268336 -0.043950 0.026469 127 127 0
0.381161 0.065568 -0.170188 255 0 0
-0.432745 -0.044989 0.146700 127 127 0
-0.000231 0.064365 -0.229101 255 0 0
0.201285 0.051270 -0.267082 255 0 0
-0.157773 -0.016020 -0.120169 255 0 0
0.395233 0.067549 -0.255960 255 0 0
-0.140331 0.045168 -0.120405 255 0 0
0.012905 -0.066331 0.134850 127 127 0
0.219621 0.007195 -0.271428 255 0 0
-0.310526 0.045168 -0.041219 255 0 0
-0.407512 0.056358 -0.059801 255 0 0
-0.272866 -0.043484 0.172516 127 127 0
-0.058701 0.000609 -0.092347 255 0 0
-0.464399 0.000609 -0.025273 127 127 0
-0.068271 0.045168 -0.143540 255 0 0
0.628471 -0.032364 -0.280032 255 0 0
-0.389865 -0.016020 0.052260 255 0 0
0.777120 -0.039571 0.366683 127 127 0
-0.834394 0.032644 0.033572 0 0 255
0.541658 0.014385 -0.317621 255 0 0
0.054565 0.067549 -0.281753 255 0 0
-0.225250 0.045168 -0.071478 255 0 0
-0.394662 0.001548 0.159848 127 127 0
-0.445965 0.000609 0.029508 127 127 0
0.001889 -0.000822 -0.132085 255 0 0
-0.296358 -0.016020 -0.110528 255 0 0
-0.070361 -0.053452 0.231098 127 127 0
-0.204039 -0.043950 0.156896 127 127 0
-0.666937 0.045517 0.020576 255 0 0
-0.827695 0.059428 0.039033 0 0 255
-0.733519 -0.034669 -0.022362 0 255 0
-0.268485 0.001645 -0.164878 255 0 0
0.012586 -0.022100 0.127143 127 127 0
0.516983 0.011805 -0.316100 255 0 0
-0.287599 -0.016020 -0.010080 255 0 0
0.627968 -0.049777 0.209739 127 127 0
-0.180291 -0.000647 -0.188712 255 0 0
-0.758515 -0.005295 -0.001093 0 255 0
-0.263828 0.046207 -0.170423 255 0 0
-0.392502 -0.016020 -0.002815 255 0 0
-0.147405 0.008638 -0.194018 255 0 0
-0.343719 0.056358 -0.006245 255 0 0
0.087325 0.067549 -0.233617 255 0 0
-0.931760 0.012739 0.054076 0 0 255
0.201245 -0.000076 0.160087 127 127 0
0.781302 0.029789 0.367919 127 127 0
0.597210 -0.066331 0.226201 127 127 0
-0.681780 -0.041202 -0.054359 127 127 0
0.377994 0.046795 -0.169867 255 0 0
-0.767682 0.030314 0.057290 0 0 255
0.656269 -0.032364 -0.297281 255 0 0
-0.165581 -0.043950 0.102837 127 127 0
-0.096118 -0.003753 -0.202294 255 0 0
-0.371178 0.014096 0.096540 127 127 0
-0.830479 -0.074969 -0.075990 0 255 0
0.570067 -0.010236 0.334264 127 127 0
-0.369028 -0.055141 0.034550 127 127 0
-0.110093 0.017238 0.154001 127 127 0
-0.458850 0.034563 -0.075636 255 0 0
-0.074763 0.017238 0.154650 127 127 0
0.205343 0.032914 -0.268079 255 0 0
-0.046840 0.000609 -0.117944 255 0 0
-0.224494 -0.043950 0.072999 127 127 0
-0.772556 0.024781 0.030741 0 0 255
0.171680 -0.022808 0.274952 127 127 0
0.781049 0.067549 -0.298825 255 0 0
0.426354 0.012750 0.189461 127 127 0
0.208858 0.067549 -0.255055 255 0 0
-0.055392 -0.032364 -0.212695 255 0 0
-0.600357 -0.020438 -0.051183 127 127 0
0.698329 0.033581 0.235049 127 127 0
0.367187 -0.007437 0.315146 127 127 0
0.334598 -0.032364 -0.224721 255 0 0
0.449998 0.011948 -0.310195 255 0 0
-0.451606 -0.043950 -0.030464 127 127 0
-0.367904 -0.043950 0.082448 127 127 0
-0.892311 -0.052390 -0.079514 0 255 0
-0.378351 0.045168 0.041591 255 0 0
-0.674936 0.035594 0.026486 255 0 0
-0.013446 -0.032364 -0.209074 255 0 0
0.032022 -0.047006 0.248168 127 127 0
0.356647 -0.032364 -0.197547 255 0 0
0.673805 -0.032364 -0.267781 255 0 0
0.461733 0.033581 0.208461 127 127 0
0.686787 -0.002104 0.224498 127 127 0
-0.762905 -0.058772 -0.059788 0 255 0
-0.579947 0.000294 0.086108 127 127 0
-0.164714 -0.043950 0.183211 127 127 0
-0.305177 -0.043950 0.010171 127 127 0
-0.207942 -0.003650 -0.184250 255 0 0
-0.630386 0.001245 0.021227 255 0 0
0.265164 0.013940 -0.281373 255 0 0
-0.355258 0.000609 0.098878 127 127 0
-0.042583 -0.016607 0.170245 127 127 0
-0.578495 0.001647 -0.002937 255 0 0
-0.404248 -0.055141 0.015669 127 127 0
-0.347794 0.045168 -0.047553 255 0 0
-0.382928 0.045168 -0.082737 255 0 0
-0.153988 -0.043950 0.159006 127 127 0
-0.035835 0.029613 -0.173304 255 0 0
0.048708 -0.052336 0.339389 127 127 0
-0.038000 -0.002842 -0.175669 255 0 0
-0.166377 0.056358 -0.124124 255 0 0
0.242565 0.033581 0.255468 127 127 0
-0.512820 -0.030447 0.044417 127 127 0
-0.262973 -0.049899 0.151789 127 127 0
0.634634 0.067549 -0.246688 255 0 0
0.086077 -0.032364 -0.253462 255 0 0
-0.789316 -0.043026 -0.049626 0 255 0
-0.204814 -0.038237 0.178104 127 127 0
-0.440368 0.045168 -0.012813 255 0 0
0.218662 -0.066331 0.279777 127 127 0
0.730052 -0.032364 -0.325794 255 0 0
-0.327846 0.056358 -0.024512 255 0 0
-0.306762 0.012850 -0.112886 255 0 0
-0.362302 0.046297 -0.094471 255 0 0
-0.038576 -0.043950 0.118910 127 127 0
-0.021138 -0.055141 0.144410 127 127 0
-0.021950 0.000609 0.112370 127 127 0
-0.045778 -0.036133 0.190246 127 127 0
0.193982 -0.045816 0.158702 127 127 0
0.212935 0.033581 0.268780 127 127 0
0.447330 0.018208 -0.175548 255 0 0
-0.057451 0.056358 -0.140430 255 0 0
0.157092 0.020231 -0.255824 255 0 0
0.564516 -0.040144 0.198817 127 127 0
-0.067563 0.014749 0.231564 127 127 0
-0.114177 -0.055141 0.152598 127 127 0
-0.289436 -0.044967 0.185474 127 127 0
0.187991 0.033581 0.231330 127 127 0
0.407918 -0.053294 0.320939 127 127 0
-0.203390 0.056358 -0.097382 255 0 0
0.692297 -0.041230 0.226137 127 127 0
-0.707182 0.000605 -0.011848 0 255 0
0.488692 0.033581 0.201348 127 127 0
-0.249142 -0.043950 0.023000 127 127 0
-0.453468 -0.055141 0.021236 127 127 0
-0.049059 -0.043950 0.166087 127 127 0
0.334487 0.027266 -0.165151 255 0 0
0.644967 -0.066331 0.230104 127 127 0
0.160289 0.067549 -0.205379 255 0 0
0.198567 -0.032364 -0.209862 255 0 0
0.046513 0.012309 0.290936 127 127 0
0.057989 0.008835 -0.331552 255 0 0
-0.321192 0.000792 -0.167074 255 0 0
-0.759424 -0.041459 -0.018845 0 255 0
0.056592 0.035400 -0.329757 255 0 0
-0.711684 -0.035512 -0.030319 0 255 0
-0.402163 0.017238 -0.038305 127 127 0
-0.349454 0.017238 0.065871 127 127 0
-0.600369 -0.044989 0.006892 127 127 0
0.802366 0.008735 -0.327188 255 0 0
-0.326417 0.056358 -0.008280 255 0 0
0.068977 -0.066331 0.294118 127 127 0
-0.790139 0.049307 0.084713 0 0 255
0.739588 0.067549 -0.250531 255 0 0
-0.837690 0.014213 0.012136 0 0 255
0.073429 0.067549 -0.199022 255 0 0
-0.394884 0.045168 0.026859 255 0 0
-0.167081 -0.011742 -0.027856 255 0 0
-0.103182 -0.016020 -0.186590 255 0 0
0.771726 -0.022570 -0.267883 255 0 0
0.208306 0.016825 0.284093 127 127 0
-0.740483 0.023352 0.052242 0 0 255
0.613922 -0.066331 0.295560 127 127 0
0.191174 -0.042780 0.279853 127 127 0
-0.002892 0.035414 -0.228672 255 0 0
0.169233 -0.062868 0.274297 127 127 0
-0.070180 -0.014802 -0.076696 255 0 0
-0.789496 -0.069048 -0.056292 0 255 0
-0.233208 0.045168 -0.084645 255 0 0
-0.074722 0.033581 0.226314 127 127 0
0.517742 0.025542 -0.178226 255 0 0
0.097985 -0.032364 -0.228905 255 0 0
0.536939 0.067549 -0.210008 255 0 0
0.360385 0.067549 -0.220250 255 0 0
-0.912623 -0.023366 -0.055440 0 255 0
-0.334899 -0.020307 0.109471 127 127 0
-0.468814 0.000609 -0.010720 127 127 0
-0.901783 -0.008884 -0.040971 0 255 0
0.197604 -0.066331 0.259939 127 127 0
-0.456132 0.000609 0.050485 127 127 0
0.254758 -0.032364 -0.240113 255 0 0
0.583546 -0.003568 -0.184943 255 0 0
-0.998972 0.000605 -0.093173 0 255 0
0.753811 0.033581 0.293291 127 127 0
-0.163998 0.017238 0.186212 127 127 0
-0.084471 0.000609 -0.084466 255 0 0
0.162777 0.033581 0.162081 127 127 0
-0.175928 0.021481 -0.175647 255 0 0
-0.076703 0.045168 -0.160803 255 0 0
0.337831 0.067549 -0.208433 255 0 0
0.214288 0.059078 -0.270218 255 0 0
-0.191791 0.032481 -0.173087 255 0 0
0.086043 -0.028835 -0.332251 255 0 0
-0.908346 0.051432 0.092666 0 0 255
0.508836 -0.032364 -0.255913 255 0 0
-0.377034 -0.043950 0.034883 127 127 0
-0.784988 -0.038860 -0.004967 0 255 0
0.260374 0.033581 0.183543 127 127 0
0.732998 0.000697 -0.222704 255 0 0
0.090118 0.042957 -0.320699 255 0 0
0.243408 -0.052666 0.292153 127 127 0
-0.755138 -0.015361 -0.034218 0 255 0
-0.380415 0.000609 0.009114 255 0 0
-0.850180 0.067845 0.059498 0 0 255
-0.002233 0.033581 0.178341 127 127 0
0.137091 -0.066331 0.177248 127 127 0
-0.373747 -0.055141 -0.037859 127 127 0
-0.572127 -0.000047 0.062147 127 127 0
-0.659846 -0.044894 0.012893 127 127 0
0.112271 -0.066331 0.188951 127 127 0
0.477220 0.067549 -0.220981 255 0 0
-0.292880 0.045168 -0.108142 255 0 0
-0.650121 0.045045 0.076900 255 0 0
-0.561426 0.044129 -0.053055 255 0 0
-0.119349 -0.014512 0.206135 127 127 0
0.582831 0.033581 0.212319 127 127 0
-0.239929 -0.016020 -0.121886 255 0 0
-0.834949 -0.046210 -0.035940 0 255 0
0.485930 0.020219 -0.176808 255 0 0
-0.192464 0.000609 0.129466 127 127 0
-0.439550 -0.055141 -0.017732 127 127 0
0.245311 -0.003261 0.292560 127 127 0
0.679161 -0.066331 0.303254 127 127 0
-0.226426 0.017238 0.054385 127 127 0
0.189480 -0.018640 -0.264179 255 0 0
-0.537706 0.000186 0.067006 127 127 0
0.130645 0.048367 -0.250382 255 0 0
-0.209632 0.056358 -0.142407 255 0 0
0.618105 -0.013421 0.207673 127 127 0
-0.847066 0.058281 0.080472 0 0 255
0.755730 -0.025282 0.271849 127 127 0
-0.973415 -0.035688 -0.095260 0 255 0
-0.315577 0.000609 -0.045496 255 0 0
0.079892 -0.050642 0.319638 127 127 0
-0.556477 -0.000373 0.086687 127 127 0
-0.239905 0.000609 0.018118 127 127 0
-0.753442 0.000605 -0.022581 0 255 0
-0.844032 0.026558 0.018688 0 0 255
-0.324390 -0.043950 0.080069 127 127 0
-0.142836 0.000860 0.202218 127 127 0
-0.359411 0.056358 -0.016196 255 0 0
-0.825719 -0.044581 -0.069539 0 255 0
-0.863215 -0.037109 -0.033914 0 255 0
-0.224938 0.000609 -0.134218 255 0 0
-0.822406 0.011697 0.024872 0 0 255
-0.374590 0.017238 0.082048 127 127 0
0.351489 0.043242 -0.167165 255 0 0
-0.285242 -0.043950 0.078953 127 127 0
0.108706 0.050070 -0.255765 255 0 0
-0.434146 0.000609 0.056642 255 0 0
-0.381923 0.046207 -0.128170 255 0 0
0.085789 0.020555 -0.303364 255 0 0
0.280800 -0.017674 0.299972 127 127 0
0.039664 -0.032364 -0.117436 255 0 0
0.648068 -0.031701 -0.323471 255 0 0
0.161112 0.003370 -0.137611 255 0 0
-0.392811 0.043727 -0.153279 255 0 0
-0.274326 0.000609 0.059037 127 127 0
0.377744 0.011725 0.316743 127 127 0
0.119617 -0.000976 -0.128865 255 0 0
0.514948 0.033581 0.225601 127 127 0
0.253525 0.067549 -0.275654 255 0 0
0.645613 0.039997 -0.196218 255 0 0
0.058134 0.033273 0.128823 127 127 0
-0.409643 -0.016020 -0.057470 255 0 0
0.312372 -0.038318 0.177555 127 127 0
-0.768662 -0.048478 -0.029615 0 255 0
-0.206416 0.056358 -0.020871 255 0 0
-0.148221 -0.055141 0.093275 127 127 0
-0.445188 -0.016020 0.007064 255 0 0
-0.319732 0.044129 -0.139925 255 0 0
0.049337 0.001979 -0.262391 255 0 0
-0.346104 0.046126 -0.157426 255 0 0
0.635555 -0.012437 0.338851 127 127 0
-0.805835 0.026761 0.048808 0 0 255
-0.159831 0.000609 -0.032366 255 0 0
-0.480667 -0.043950 0.023747 127 127 0
0.625005 -0.005732 -0.321232 255 0 0
0.502456 0.033581 0.208785 127 127 0
-0.236167 0.017238 0.132210 127 127 0
0.565852 0.033581 0.331917 127 127 0
-0.502951 0.044129 -0.086549 255 0 0
-0.527372 -0.044989 0.089500 127 127 0
-0.219685 -0.017345 0.176127 127 127 0
-0.535538 -0.043242 0.076293 127 127 0
-0.623013 0.001647 0.004789 255 0 0
-0.233446 0.056358 -0.025625 255 0 0
0.319084 0.033581 0.204906 127 127 0
0.192987 -0.032364 -0.177476 255 0 0
-0.159377 0.056358 -0.046186 255 0 0
-0.713455 -0.011881 -0.039463 0 255 0
-0.218338 -0.036080 0.189629 127 127 0
0.445558 0.042743 -0.309697 255 0 0
0.129653 0.054175 -0.131098 255 0 0
-0.208144 0.045168 -0.070872 255 0 0
-0.313126 0.021246 -0.178100 255 0 0
-0.233268 -0.009223 0.190781 127 127 0
-0.421784 -0.043950 -0.046569 127 127 0
0.498962 0.033581 0.288856 127 127 0
0.312137 0.033581 0.295067 127 127 0
0.191569 0.065037 -0.143468 255 0 0
0.737273 0.003016 0.356323 127 127 0
-0.241986 -0.043950 0.067029 127 127 0
-0.341894 0.000609 0.073663 127 127 0
-0.279693 -0.016020 -0.061633 255 0 0
-0.255521 0.046205 -0.147145 255 0 0
0.682566 -0.000538 -0.328037 255 0 0
0.800950 -0.023850 -0.319844 255 0 0
-0.003292 0.042537 -0.121171 255 0 0
-0.335552 0.000567 -0.121708 255 0 0
0.167146 -0.066331 0.245777 127 127 0
-0.511027 0.022312 -0.112326 255 0 0
-0.410532 -0.055141 -0.028562 127 127 0
-0.478480 0.056358 0.000644 255 0 0
-0.492455 -0.000993 0.075897 127 127 0
-0.168502 0.056358 -0.103951 255 0 0
-0.345950 -0.000182 0.146940 127 127 0
0.510112 0.013979 -0.177739 255 0 0
0.051685 0.033581 0.272057 127 127 0
0.183977 0.007892 -0.262826 255 0 0
-0.542358 -0.011974 0.109423 127 127 0
-0.349297 -0.043950 0.093297 127 127 0
-0.554908 0.015873 -0.084963 255 0 0
0.512108 0.067549 -0.255118 255 0 0
-0.264486 0.000609 0.000407 127 127 0
-0.234846 -0.016020 -0.000934 255 0 0
-0.279739 -0.043950 0.092873 127 127 0
0.531469 0.033581 0.291332 127 127 0
0.295391 0.067549 -0.225824 255 0 0
-0.797857 -0.052490 -0.031500 0 255 0
0.074030 -0.011730 -0.338726 255 0 0
-0.660612 -0.044990 -0.052742 127 127 0
0.131934 -0.032364 -0.221694 255 0 0
0.376407 0.067549 -0.261918 255 0 0
-0.314518 -0.055141 -0.018179 127 127 0
-0.403733 -0.016020 -0.031889 255 0 0
-0.228548 -0.043950 0.135394 127 127 0
0.004661 -0.066331 0.175260 127 127 0
-0.059032 -0.016020 -0.084205 255 0 0
-0.773363 0.018401 0.016185 0 0 255
-0.106497 -0.043950 0.127353 127 127 0
-0.860324 -0.070771 -0.081786 0 255 0
-0.320914 -0.014179 0.041551 255 0 0
-0.540821 -0.008002 -0.005381 127 127 0
0.410181 0.067549 -0.289519 255 0 0
-0.298806 0.056358 -0.043850 255 0 0
-0.563926 -0.044989 -0.015731 127 127 0
-0.337022 0.015582 -0.095092 255 0 0
0.266591 -0.032364 -0.230725 255 0 0
-0.818415 -0.068521 -0.039954 0 255 0
0.238010 -0.043070 0.166514 127 127 0
-0.061836 0.055714 -0.219161 255 0 0
-0.433504 0.056358 0.034238 255 0 0
0.062226 -0.000740 0.129829 127 127 0
-0.729459 -0.037109 -0.060998 0 255 0
0.547063 0.024358 -0.180548 255 0 0
-0.301539 0.045168 -0.087979 255 0 0
-0.400282 0.000609 -0.060907 255 0 0
-0.146258 0.000609 0.155273 127 127 0
-0.859524 0.034479 0.033017 0 0 255
0.772367 0.067549 -0.310528 255 0 0
0.636982 0.033581 0.276119 127 127 0
-0.316065 0.000609 -0.076583 255 0 0
-0.080948 0.033136 -0.204742 255 0 0
-0.146752 -0.043950 0.071651 127 127 0
-0.165100 -0.016020 -0.175038 255 0 0
-0.879859 0.051189 0.085175 0 0 255
-0.137101 0.056358 -0.133734 255 0 0
-0.760747 -0.040311 -0.040918 0 255 0
-0.185695 0.045168 -0.025520 255 0 0
0.673672 -0.037652 0.343937 127 127 0
0.053491 0.021844 -0.281780 255 0 0
-0.313563 -0.043950 0.097739 127 127 0
-0.227882 -0.055141 0.019511 127 127 0
-0.140322 -0.055141 0.123925 127 127 0
0.803156 0.057562 -0.335869 255 0 0
0.561281 0.033581 0.274979 127 127 0
0.076101 0.067549 -0.304136 255 0 0
-0.291911 -0.043950 0.041581 127 127 0
-0.430784 -0.026867 0.163591 127 127 0
-0.271710 0.017238 0.015830 127 127 0
0.079649 0.062144 -0.119659 255 0 0
-0.375730 0.056358 -0.066581 255 0 0
-0.285730 -0.055141 0.017045 127 127 0
-0.350302 0.013148 0.107199 127 127 0
0.499738 0.007462 0.192840 127 127 0
-0.679079 0.001368 -0.016730 127 127 0
-0.108915 -0.055141 0.081642 127 127 0
-0.163950 0.045168 -0.145314 255 0 0
-0.590508 0.000774 0.029880 255 0 0
0.708101 0.067549 -0.253051 255 0 0
0.766768 -0.066331 0.317938 127 127 0
0.666315 0.067549 -0.225697 255 0 0
0.555942 0.067549 -0.243057 255 0 0
-0.342276 0.056358 -0.090233 255 0 0
-0.849300 -0.045164 -0.073665 0 255 0
0.401625 0.067549 -0.267758 255 0 0
0.787678 -0.001654 0.318800 127 127 0
0.621486 0.033581 0.299670 127 127 0
0.210244 -0.032364 -0.200304 255 0 0
0.524902 -0.025963 -0.316601 255 0 0
-0.329995 0.039750 -0.177125 255 0 0
-0.424582 -0.055141 0.026567 127 127 0
-0.552936 -0.000444 -0.007151 127 127 0
0.434120 0.012782 -0.174656 255 0 0
-0.786610 0.018645 0.045452 0 0 255
-0.344889 0.000356 -0.103247 255 0 0
-0.103211 0.000609 0.107798 127 127 0
0.043055 0.033581 0.126518 127 127 0
-0.228874 0.017238 0.155105 127 127 0
0.748441 0.021790 -0.239082 255 0 0
-0.639867 -0.039459 -0.062775 127 127 0
0.166059 0.054849 -0.138624 255 0 0
0.653380 0.033581 0.217204 127 127 0
-0.135592 -0.016020 -0.160105 255 0 0
-0.176995 -0.023798 0.182742 127 127 0
0.052231 -0.032364 -0.241766 255 0 0
0.684935 0.018449 0.223948 127 127 0
-0.780258 0.000605 -0.033093 0 255 0
-0.106830 -0.016020 -0.115688 255 0 0
0.484276 0.067549 -0.281616 255 0 0
-0.648682 -0.000391 0.069970 255 0 0
-0.497752 0.002072 -0.104022 255 0 0
-0.382099 -0.043950 -0.046386 127 127 0
0.010507 -0.007296 -0.122668 255 0 0
-0.107992 0.056358 -0.106602 255 0 0
-0.937397 0.024394 0.058766 0 0 255
-0.335575 -0.055141 -0.011961 127 127 0
-0.412870 0.000609 0.026699 127 127 0
0.318492 -0.032364 -0.210224 255 0 0
0.654741 -0.002752 -0.324271 255 0 0
0.615592 -0.032364 -0.200313 255 0 0
0.152278 -0.056992 0.269708 127 127 0
-0.373949 -0.000419 0.161493 127 127 0
0.544961 0.033581 0.270783 127 127 0
-0.665892 -0.044989 -0.023747 127 127 0
0.441955 -0.016648 -0.175185 255 0 0
0.470653 -0.066331 0.256570 127 127 0
-0.366691 0.045168 -0.008381 255 0 0
0.658705 0.030637 -0.199265 255 0 0
-0.558108 0.045153 -0.080223 255 0 0
0.202698 0.067549 -0.162050 255 0 0
-0.894060 0.045939 0.079046 0 0 255
-0.875371 0.016224 0.050533 0 0 255
-0.491094 0.038368 -0.118852 255 0 0
0.375147 -0.066331 0.267496 127 127 0
0.764197 0.033581 0.349431 127 127 0
-0.323959 0.045168 0.010152 255 0 0
-0.312837 0.000609 0.116399 127 127 0
0.530796 0.039285 -0.316960 255 0 0
-0.426762 -0.039218 0.106852 127 127 0
0.446151 -0.054166 0.190902 127 127 0
-0.081234 -0.016020 -0.133535 255 0 0
-0.130703 0.000574 -0.046191 255 0 0
-0.056532 -0.012560 0.185326 127 127 0
-0.556405 0.046040 -0.004566 255 0 0
0.197135 -0.028488 0.281352 127 127 0
-0.375810 -0.043950 -0.030502 127 127 0
-0.025865 0.036625 -0.224965 255 0 0
0.037771 -0.003974 0.123493 127 127 0
-0.006694 0.033581 0.226550 127 127 0
-0.212552 -0.016020 -0.053805 255 0 0
-0.880753 0.056555 0.054847 0 0 255
0.272075 0.067549 -0.268216 255 0 0
-0.590998 0.044129 0.013173 255 0 0
0.604703 0.033581 0.254184 127 127 0
0.762434 0.004420 0.280510 127 127 0
-0.054290 0.067549 -0.209482 255 0 0
-0.322961 -0.044988 0.178397 127 127 0
-0.061924 -0.016020 -0.100121 255 0 0
0.000146 0.005453 0.242854 127 127 0
0.261731 -0.008291 -0.155315 255 0 0
-0.427217 0.045168 -0.017750 255 0 0
-0.574671 0.004332 -0.060053 255 0 0
-0.364432 0.045168 0.016861 255 0 0
-0.511127 0.044129 -0.057467 255 0 0
-0.333601 0.045168 0.039438 255 0 0
0.389017 -0.050087 0.186218 127 127 0
-0.222910 0.025914 -0.157703 255 0 0
0.086054 0.033581 0.197201 127 127 0
0.393074 -0.066331 0.202487 127 127 0
-0.347603 -0.043950 0.024250 127 127 0
-0.532080 0.001216 -0.048745 255 0 0
-0.629370 -0.042699 0.047196 127 127 0
-0.389755 -0.043950 0.061407 127 127 0
-0.477196 -0.054353 -0.048347 127 127 0
-0.464861 -0.013137 0.150795 127 127 0
-0.446782 0.000609 -0.013873 127 127 0
-0.715937 -0.006589 -0.020429 0 255 0
-0.170573 -0.016020 -0.108222 255 0 0
-0.076500 -0.016020 -0.173093 255 0 0
-0.137838 -0.016020 -0.136439 255 0 0
-0.113128 0.008007 -0.185780 255 0 0
-0.870435 -0.043923 -0.081991 0 255 0
-0.987046 -0.028775 -0.097238 0 255 0
-0.256040 -0.019926 0.191916 127 127 0
0.555112 -0.066331 0.222459 127 127 0
0.017601 0.026219 0.121721 127 127 0
-0.060442 0.017238 0.110067 127 127 0
0.401304 -0.066331 0.267456 127 127 0
0.545048 -0.066331 0.261220 127 127 0
-0.249687 0.017238 0.061700 127 127 0
-0.366988 0.046207 -0.138519 255 0 0
0.606890 -0.011505 -0.319951 255 0 0
-0.112978 0.000609 0.148758 127 127 0
-0.450857 0.056358 0.018038 255 0 0
0.205877 0.033581 0.174840 127 127 0
0.731375 -0.032364 -0.278782 255 0 0
0.249825 0.067549 -0.249799 255 0 0
0.415326 -0.047907 0.188578 127 127 0
0.484681 -0.019451 0.329309 127 127 0
-0.805721 -0.061257 -0.041909 0 255 0
-0.957030 -0.003559 -0.057341 0 255 0
0.294740 -0.066331 0.278163 127 127 0
-0.944520 0.030396 0.070988 0 0 255
-0.344762 0.056358 -0.066395 255 0 0
-0.452629 -0.055141 -0.042556 127 127 0
0.303332 0.033581 0.242432 127 127 0
-0.748509 -0.069503 -0.048720 0 255 0
-0.789723 0.069501 0.059457 0 0 255
0.228062 0.042267 -0.273343 255 0 0
0.522712 0.033581 0.269845 127 127 0
0.264706 0.067549 -0.252522 255 0 0
-0.008422 0.003217 0.149858 127 127 0
-0.067665 -0.007103 0.213910 127 127 0
-0.366895 -0.043378 0.128960 127 127 0
-0.799852 0.081035 0.056300 0 0 255
-0.206163 0.045168 -0.164542 255 0 0
-0.222263 0.000609 0.135337 127 127 0
0.763216 0.003547 0.362849 127 127 0
0.070500 -0.066331 0.243692 127 127 0
0.321463 -0.032364 -0.189694 255 0 0
-0.061178 0.045168 -0.089442 255 0 0
-0.770627 0.000609 0.035798 0 0 255
0.736089 -0.066331 0.349209 127 127 0
0.666704 0.067549 -0.245979 255 0 0
0.581470 0.047177 -0.318756 255 0 0
-0.285234 0.045168 -0.058319 255 0 0
0.618393 -0.032364 -0.289483 255 0 0
0.013793 0.033581 0.189699 127 127 0
-0.188608 0.045168 -0.124044 255 0 0
-0.231309 0.056358 -0.158807 255 0 0
-0.117117 -0.033480 0.192726 127 127 0
-0.112250 0.045168 -0.065824 255 0 0
-0.788385 0.019574 0.032134 0 0 255
0.133400 0.067549 -0.167966 255 0 0
0.417896 0.054716 -0.306505 255 0 0
0.686706 -0.066331 0.240465 127 127 0
-0.299768 -0.043950 0.069991 127 127 0
0.580683 -0.032364 -0.184578 255 0 0
0.553071 0.026665 0.197391 127 127 0
0.668115 -0.048182 0.219323 127 127 0
-0.367979 -0.031016 0.181197 127 127 0
-0.035636 0.017238 0.159399 127 127 0
0.245460 -0.066331 0.191900 127 127 0
0.344136 0.033581 0.243102 127 127 0
-0.047943 -0.007923 -0.186534 255 0 0
-0.929975 -0.032897 -0.066741 0 255 0
-0.113527 -0.055141 0.191311 127 127 0
-0.252126 -0.055141 0.029287 127 127 0
0.358594 0.067549 -0.248973 255 0 0
-0.201586 -0.016020 -0.144581 255 0 0
-0.365700 0.000609 0.032535 127 127 0
0.530576 -0.066331 0.298022 127 127 0
0.730054 0.020740 0.242456 127 127 0
-0.235301 -0.043950 0.040359 127 127 0
-0.507705 -0.042482 0.062914 127 127 0
-0.522005 0.046207 -0.064910 255 0 0
-0.081047 -0.055141 0.098293 127 127 0
0.589395 -0.032364 -0.204314 255 0 0
-0.014193 0.067549 -0.173451 255 0 0
0.059883 -0.066331 0.252239 127 127 0
-0.609957 0.044129 -0.005503 255 0 0
-0.205029 0.000609 -0.039955 255 0 0
0.008857 -0.032364 -0.170636 255 0 0
-0.675983 0.045526 0.062022 255 0 0
-0.849052 -0.015135 -0.026381 0 255 0
-0.454426 0.056358 -0.036838 255 0 0
0.301858 -0.032364 -0.219198 255 0 0
-0.732072 0.000605 -0.043821 0 255 0
0.346739 -0.054276 0.181804 127 127 0
-0.701381 -0.045527 -0.050981 0 255 0
0.648955 0.061740 -0.323578 255 0 0
0.719622 0.067549 -0.259378 255 0 0
-0.212606 0.004621 0.012058 127 127 0
0.275429 -0.066331 0.263541 127 127 0
-0.957492 0.010845 0.074025 0 0 255
0.073705 0.067549 -0.319591 255 0 0
-0.309989 0.049857 -0.120837 255 0 0
-0.220359 0.000609 -0.073333 255 0 0
-0.394136 -0.005385 -0.078426 255 0 0
-0.333534 0.046207 -0.150127 255 0 0
0.399117 0.061928 -0.171840 255 0 0
0.673126 -0.032364 -0.295354 255 0 0
-0.204112 -0.043950 0.028958 127 127 0
-0.581963 0.044129 -0.009646 255 0 0
0.529089 0.033581 0.205490 127 127 0
0.649917 0.033581 0.279742 127 127 0
0.158742 0.067549 -0.160109 255 0 0
-0.006449 0.046551 -0.108817 255 0 0
0.743478 0.007337 -0.233648 255 0 0
-0.068322 0.056358 -0.129557 255 0 0
-0.148832 -0.009849 0.187438 127 127 0
-0.302910 0.011169 0.131397 127 127 0
0.007094 0.011555 0.133081 127 127 0
0.622311 0.031816 -0.320983 255 0 0
0.692547 0.033581 0.315473 127 127 0
0.267805 0.033581 0.290066 127 127 0
-0.043395 -0.024543 0.235594 127 127 0
-0.372064 0.001079 0.135491 127 127 0
-0.363252 0.000609 0.075453 127 127 0
-0.354000 0.017238 0.033483 127 127 0
0.252209 -0.032364 -0.226968 255 0 0
0.229680 -0.032364 -0.152366 255 0 0
-0.343136 0.000609 0.107074 127 127 0
-0.206750 -0.016020 -0.017804 255 0 0
-0.334056 -0.043950 -0.025421 127 127 0
-0.738566 0.051295 0.049868 0 0 255
-0.381620 -0.016020 -0.012736 255 0 0
-0.112777 0.000609 0.190160 127 127 0
0.496938 0.067549 -0.303981 255 0 0
0.325357 0.023608 0.308285 127 127 0
-0.792041 0.000609 0.024451 0 0 255
0.019239 0.065234 -0.113128 255 0 0
-0.527371 0.001172 0.109003 127 127 0
-0.158841 -0.038514 0.199550 127 127 0
-0.043402 -0.032364 -0.192119 255 0 0
-0.246595 0.022007 -0.144959 255 0 0
-0.410689 0.045168 -0.010943 255 0 0
-0.100709 0.000609 0.182536 127 127 0
0.408913 0.033581 0.234113 127 127 0
-0.373817 -0.016020 0.036285 255 0 0
0.083355 -0.001265 0.337434 127 127 0
-0.666840 -0.020101 0.008930 127 127 0
0.054755 0.067549 -0.232710 255 0 0
-0.430149 0.002704 -0.089102 255 0 0
-0.378245 0.045168 -0.018494 255 0 0
-0.168066 0.017238 0.077483 127 127 0
0.049310 0.020474 -0.262298 255 0 0
0.615949 0.033581 0.209429 127 127 0
0.077752 0.050797 -0.337874 255 0 0
-0.278560 -0.016020 -0.089058 255 0 0
-0.625021 0.045128 0.075386 255 0 0
-0.313039 0.000609 0.055033 127 127 0
-0.143770 -0.043950 0.114476 127 127 0
0.283491 0.008391 -0.158562 255 0 0
0.020803 -0.064273 0.246298 127 127 0
0.719063 0.033581 0.324533 127 127 0
-0.032214 0.000609 -0.124071 255 0 0
-0.211778 0.045168 -0.033331 255 0 0
-0.191958 0.000609 -0.051967 255 0 0
0.732217 -0.014515 0.355123 127 127 0
-0.337857 0.000780 -0.164086 255 0 0
-0.553445 0.029859 0.046312 255 0 0
-0.270264 0.017238 -0.014765 127 127 0
0.193591 -0.066331 0.175404 127 127 0
-0.031444 -0.004788 0.158201 127 127 0
-0.295345 0.000609 0.001012 127 127 0
0.065714 0.067549 -0.260420 255 0 0
0.251981 0.033581 0.246222 127 127 0
-0.443718 0.017238 -0.054536 127 127 0
-0.071818 0.000609 0.173559 127 127 0
0.037147 0.020483 -0.109015 255 0 0
0.078885 -0.037562 0.304249 127 127 0
0.353437 -0.040475 0.182519 127 127 0
0.712927 0.033581 0.254928 127 127 0
-0.432602 0.045679 -0.091037 255 0 0
-0.759863 -0.036516 -0.056144 0 255 0
-0.332903 0.056358 -0.102047 255 0 0
-0.460974 0.056358 0.037080 255 0 0
-0.478208 0.043117 -0.058083 255 0 0
0.054394 0.012441 -0.318640 255 0 0
-0.248619 0.000609 -0.071340 255 0 0
0.301937 -0.010190 -0.161062 255 0 0
0.745602 -0.014989 -0.340134 255 0 0
-0.193311 0.017238 0.052769 127 127 0
-0.208191 0.045168 -0.150958 255 0 0
0.469926 -0.032364 -0.214207 255 0 0
-0.888851 0.000605 -0.028238 0 255 0
0.224839 -0.045863 0.164225 127 127 0
0.801540 0.050257 -0.354380 255 0 0
-0.195157 -0.055141 0.036429 127 127 0
0.704678 0.067549 -0.222817 255 0 0
-0.471695 -0.044989 0.132816 127 127 0
-0.862156 -0.020770 -0.028777 0 255 0
0.334888 0.067549 -0.170948 255 0 0
0.753143 -0.032364 -0.302678 255 0 0
-0.464634 -0.044521 0.089173 127 127 0
-0.790447 0.036464 0.022299 0 0 255
0.267297 -0.066331 0.193874 127 127 0
-0.509689 -0.030748 0.127765 127 127 0
-0.025554 -0.031946 0.151833 127 127 0
0.401893 -0.032364 -0.278131 255 0 0
-0.057799 0.000609 -0.131507 255 0 0
-0.615944 0.008161 0.075590 255 0 0
-0.068033 0.019591 -0.191908 255 0 0
-0.820905 -0.006937 0.006653 0 255 0
-0.401297 -0.043950 -0.003468 127 127 0
0.172745 0.067549 -0.155524 255 0 0
-0.265697 0.017238 -0.000842 127 127 0
-0.808189 0.051665 0.025429 0 0 255
0.241678 -0.014215 0.167094 127 127 0
-0.123170 0.000609 0.125114 127 127 0
-0.817606 0.000609 0.041198 0 0 255
-0.116659 -0.043950 0.184099 127 127 0
-0.312459 0.045168 -0.021494 255 0 0
-0.775396 0.056320 0.078263 0 0 255
-0.109828 0.045168 -0.180334 255 0 0
-0.178513 -0.003174 0.196270 127 127 0
-0.058711 0.014321 -0.181722 255 0 0
0.716717 -0.032364 -0.251317 255 0 0
-0.663939 0.043969 0.068906 255 0 0
0.091484 -0.045450 0.277197 127 127 0
-0.276019 0.056358 -0.046785 255 0 0
0.663859 -0.066331 0.271231 127 127 0
-0.387503 0.043688 -0.108195 255 0 0
-0.197051 -0.055141 0.138094 127 127 0
-0.742974 -0.061027 -0.061327 0 255 0
-0.204321 0.017238 0.148924 127 127 0
-0.443412 -0.016020 -0.040916 255 0 0
0.623821 -0.066331 0.240320 127 127 0
0.064218 -0.031635 -0.115952 255 0 0
0.691726 0.067549 -0.313020 255 0 0
0.188766 -0.066331 0.194641 127 127 0
0.007141 -0.047641 0.133030 127 127 0
-0.297346 -0.055141 0.111736 127 127 0
-0.907615 -0.037672 -0.041168 0 255 0
0.190132 0.033581 0.185289 127 127 0
-0.433120 -0.043950 0.048130 127 127 0
-0.076149 0.045168 -0.119232 255 0 0
0.013606 0.004820 -0.119282 255 0 0
-0.092100 -0.016020 -0.201191 255 0 0
-0.832778 0.056205 0.079338 0 0 255
-0.440969 0.014491 -0.085690 255 0 0
0.052484 -0.031310 -0.275829 255 0 0
-0.261131 0.034501 -0.137114 255 0 0
-0.678619 0.001301 -0.059242 127 127 0
-0.577339 0.043484 -0.052934 255 0 0
-0.173925 -0.016020 -0.129761 255 0 0
-0.817595 -0.027589 -0.018915 0 255 0
-0.060658 0.045168 -0.113500 255 0 0
0.148069 -0.032364 -0.204241 255 0 0
-0.335250 -0.016020 -0.086998 255 0 0
-0.446602 0.001531 0.113861 127 127 0
0.111506 -0.029735 0.141591 127 127 0
0.047989 -0.016359 0.336686 127 127 0
0.326769 0.067549 -0.219056 255 0 0
0.694171 -0.032364 -0.243120 255 0 0
-0.231762 -0.043950 0.086472 127 127 0
0.048561 -0.051951 0.313514 127 127 0
-0.232892 0.000609 -0.003975 255 0 0
0.543908 -0.027640 0.196348 127 127 0
-0.047836 -0.005930 0.175924 127 127 0
-0.158823 -0.043950 0.042041 127 127 0
-0.289456 0.000609 -0.059900 255 0 0
0.111010 -0.002956 -0.254500 255 0 0
0.459530 -0.025794 0.326870 127 127 0
0.325043 -0.036029 0.179123 127 127 0
-0.883572 0.037782 0.063170 0 0 255
0.143378 -0.006694 0.148583 127 127 0
-0.494361 -0.005024 -0.019880 255 0 0
-0.166466 -0.055141 0.087291 127 127 0
-0.253236 -0.055141 0.060560 127 127 0
0.090108 0.028597 -0.320930 255 0 0
0.784506 -0.019458 0.368865 127 127 0
0.350584 -0.026712 0.182214 127 127 0
-0.472964 0.000609 0.043552 127 127 0
0.503877 0.067549 -0.215522 255 0 0
-0.008346 -0.010075 0.149775 127 127 0
-0.154138 -0.016020 -0.189142 255 0 0
-0.201506 -0.043950 0.088414 127 127 0
0.746566 -0.032364 -0.285001 255 0 0
0.733150 0.055369 -0.337293 255 0 0
-0.494734 -0.043950 -0.026375 127 127 0
0.135682 0.011202 -0.250520 255 0 0
-0.513155 0.044302 -0.110798 255 0 0
-0.459601 0.045168 -0.007064 255 0 0
-0.510533 0.026269 -0.015275 255 0 0
-0.135916 0.000609 -0.169801 255 0 0
-0.354438 0.045168 0.049160 255 0 0
0.610591 0.032428 0.336524 127 127 0
-0.612267 0.008260 -0.042828 255 0 0
-0.882206 -0.058327 -0.050170 0 255 0
0.678126 0.033581 0.237436 127 127 0
0.242012 0.067549 -0.260386 255 0 0
0.667383 0.067549 -0.272063 255 0 0
-0.144473 0.045168 -0.069183 255 0 0
-0.771834 -0.066910 -0.053665 0 255 0
0.041802 0.033581 0.184399 127 127 0
-0.139689 -0.055141 0.051504 127 127 0
-0.340857 -0.042947 0.175206 127 127 0
-0.272166 -0.016020 -0.024368 255 0 0
0.055087 -0.009877 -0.301888 255 0 0
-0.293895 -0.055141 -0.010163 127 127 0
-0.332946 -0.043950 0.036422 127 127 0
-0.471248 -0.000114 0.100095 127 127 0
-0.746383 -0.058212 -0.025568 0 255 0
-0.421381 0.001264 -0.052579 127 127 0
-0.312840 0.000609 0.088088 127 127 0
-0.857610 0.049742 0.087482 0 0 255
0.324945 -0.022781 0.179110 127 127 0
0.036238 -0.012485 0.255882 127 127 0
0.675740 -0.021002 0.221363 127 127 0
-0.707162 0.008777 0.029414 0 0 255
-0.099516 0.017238 0.193560 127 127 0
0.043679 -0.002057 -0.246047 255 0 0
0.706424 -0.001557 -0.332022 255 0 0
0.708837 -0.029800 0.350122 127 127 0
-0.283357 0.000609 0.114593 127 127 0
-0.652903 0.046079 0.049114 255 0 0
-0.519041 0.000409 0.001521 255 0 0
0.558050 -0.032364 -0.305526 255 0 0
0.512800 -0.012975 0.331655 127 127 0
-0.185299 -0.043950 0.052956 127 127 0
-0.730089 0.041539 0.059210 0 0 255
-0.658760 -0.016822 0.019800 127 127 0
0.617588 -0.032364 -0.273243 255 0 0
-0.315890 0.056358 -0.098901 255 0 0
0.567717 0.030949 -0.182838 255 0 0
0.657733 -0.066331 0.322204 127 127 0
0.013612 0.067549 -0.166338 255 0 0
-0.731022 -0.057076 -0.030788 0 255 0
-0.728157 0.005451 0.022542 0 0 255
-0.866706 -0.003668 -0.039647 0 255 0
0.052123 -0.016557 0.127277 127 127 0
0.206400 -0.052513 0.283650 127 127 0
0.710755 -0.020911 -0.332781 255 0 0
0.486939 -0.001682 -0.176845 255 0 0
-0.282628 0.025871 -0.181645 255 0 0
0.367909 0.033581 0.280650 127 127 0
0.699689 0.033581 0.332281 127 127 0
-0.453484 -0.001222 0.101994 127 127 0
-0.110040 -0.043950 0.173129 127 127 0
-0.434527 0.004623 -0.147855 255 0 0
-0.371038 0.017238 0.020016 127 127 0
0.699396 -0.028514 0.228247 127 127 0
0.443106 -0.066331 0.267305 127 127 0
0.059672 -0.032364 -0.201166 255 0 0
-0.766384 0.050023 0.047426 0 0 255
-0.185568 -0.041371 0.195094 127 127 0
-0.848604 0.042194 0.066717 0 0 255
0.544883 0.033581 0.283584 127 127 0
-0.800161 -0.015959 -0.030946 0 255 0
0.487958 -0.003072 0.192351 127 127 0
-0.314130 -0.042917 0.135650 127 127 0
-0.294730 0.000609 0.064523 127 127 0
-0.812863 -0.049695 -0.065810 0 255 0
0.004825 -0.066331 0.144771 127 127 0
0.092089 -0.002899 0.137164 127 127 0
-0.162472 0.000609 0.083917 127 127 0
-0.313648 -0.055141 0.067194 127 127 0
-0.219830 0.056358 -0.119373 255 0 0
0.388683 0.033581 0.316531 127 127 0
0.038083 0.018046 0.260449 127 127 0
-0.956497 0.035948 0.092677 0 0 255
0.750011 -0.066331 0.337676 127 127 0
-0.285446 -0.019500 0.137033 127 127 0
-0.032595 -0.026375 0.175993 127 127 0
-0.149389 0.045168 -0.152386 255 0 0
0.469767 0.026548 -0.312117 255 0 0
-0.806844 -0.051468 -0.015339 0 255 0
-0.117558 0.056358 -0.075334 255 0 0
-0.415812 0.017238 -0.043410 127 127 0
-0.909123 -0.039935 -0.093397 0 255 0
-0.727610 -0.031480 -0.048809 0 255 0
-0.363349 0.010906 -0.170349 255 0 0
-0.225571 0.045168 -0.144214 255 0 0
-0.295342 0.045168 0.003373 255 0 0
-0.532676 0.044129 -0.018397 255 0 0
-0.363333 -0.055141 0.006253 127 127 0
-0.290936 -0.051703 0.137511 127 127 0
