ply
format ascii 1.0
element vertex 1276
property float x
property float y
property float z
property uchar red
property uchar green
property uchar blue
end_header
0.784991 -0.008844 0.314055 127 127 0
-0.230198 0.045168 -0.022257 255 0 0
0.347090 0.033581 0.292896 127 127 0
0.359662 -0.032364 -0.252615 255 0 0
0.309417 0.051916 -0.289998 255 0 0
-0.479566 0.056358 -0.016123 255 0 0
0.447639 -0.032364 -0.283988 255 0 0
-0.233758 -0.043950 0.109531 127 127 0
-0.841499 -0.031441 -0.028299 0 255 0
-0.629603 -0.040884 0.046477 127 127 0
0.330604 -0.032628 0.179811 127 127 0
-0.456117 0.000609 0.013948 127 127 0
0.671964 0.003562 0.220352 127 127 0
-0.400425 0.000609 -0.099215 255 0 0
-0.843921 0.009098 0.041956 0 0 255
0.553079 -0.032364 -0.295926 255 0 0
-0.880808 0.011669 0.031174 0 0 255
-0.062461 0.067549 -0.204397 255 0 0
-0.279409 -0.043950 0.101415 127 127 0
0.575036 0.033581 0.277935 127 127 0
-0.730655 0.000609 0.012603 0 0 255
-0.382245 0.027958 -0.099429 255 0 0
-0.607903 0.045168 0.051055 255 0 0
0.301809 0.052394 -0.161044 255 0 0
0.224429 -0.066331 0.187036 127 127 0
0.702585 0.067549 -0.212566 255 0 0
-0.245573 0.045168 -0.182434 255 0 0
-0.236415 -0.018057 0.192667 127 127 0
-0.055020 0.056358 -0.140719 255 0 0
0.379260 -0.032182 0.316953 127 127 0
-0.907881 -0.020969 -0.049753 0 255 0
0.259036 0.033581 0.174195 127 127 0
0.183191 0.033581 0.173867 127 127 0
0.514407 -0.025064 0.193783 127 127 0
-0.978707 -0.013430 -0.084939 0 255 0
-0.341329 0.045168 -0.062237 255 0 0
-0.337799 0.051209 -0.106821 255 0 0
-0.101924 -0.043950 0.131045 127 127 0
0.014215 -0.066331 0.208038 127 127 0
-0.816936 0.000609 0.037847 0 0 255
-0.461452 -0.016020 -0.003236 255 0 0
0.212808 0.033581 0.179951 127 127 0
0.589541 -0.010745 -0.185826 255 0 0
-0.517974 0.000609 -0.064177 255 0 0
0.038542 0.018563 -0.235357 255 0 0
-0.200325 -0.043950 0.134524 127 127 0
-0.556702 0.035499 0.047621 255 0 0
-0.266175 0.056358 -0.005473 255 0 0
-0.315392 0.045168 -0.105420 255 0 0
-0.860954 0.010404 0.036299 0 0 255
0.735692 -0.032364 -0.284999 255 0 0
0.220214 0.033581 0.264381 127 127 0
-0.107453 0.056358 -0.096558 255 0 0
0.064805 -0.066331 0.301731 127 127 0
-0.423426 -0.055141 0.001809 127 127 0
-0.398596 0.000609 0.073591 127 127 0
-0.229814 -0.016020 -0.011404 255 0 0
-0.101925 -0.002115 -0.201357 255 0 0
-0.280013 -0.016020 -0.079931 255 0 0
-0.015330 -0.066331 0.190909 127 127 0
0.433342 -0.021128 0.324016 127 127 0
-0.084117 -0.055141 0.114904 127 127 0
-0.525955 0.026447 -0.102218 255 0 0
-0.241498 0.000609 0.177653 127 127 0
0.123961 0.033581 0.234012 127 127 0
-0.304839 0.000609 -0.160888 255 0 0
0.217051 -0.066331 0.259382 127 127 0
-0.603339 -0.043950 0.058385 127 127 0
-0.203874 0.000609 0.032484 127 127 0
0.079599 -0.032364 -0.316216 255 0 0
-0.223581 -0.055081 0.186126 127 127 0
0.770233 0.010407 -0.265848 255 0 0
0.557052 -0.032364 -0.201891 255 0 0
-0.924695 -0.040261 -0.075851 0 255 0
-0.463923 -0.006563 0.088840 127 127 0
-0.742330 -0.052654 -0.057145 0 255 0
-0.459843 0.056358 -0.036277 255 0 0
-0.977235 -0.021740 -0.096268 0 255 0
0.545469 -0.032364 -0.232693 255 0 0
0.243016 0.033315 -0.276734 255 0 0
-0.020197 0.017238 0.131070 127 127 0
-0.584219 0.000609 0.076001 127 127 0
0.767015 -0.008296 0.363861 127 127 0
-0.385687 0.002227 -0.099368 255 0 0
0.596668 0.067549 -0.236213 255 0 0
-0.261165 0.046464 0.019564 255 0 0
-0.238287 0.000609 -0.103316 255 0 0
-0.273490 -0.055141 0.031048 127 127 0
-0.973065 0.017129 0.087328 0 0 255
-0.900969 -0.045802 -0.062493 0 255 0
-0.043082 -0.016020 -0.115596 255 0 0
-0.207537 0.045168 -0.052384 255 0 0
-0.364034 0.000609 0.009565 127 127 0
-0.133567 -0.043950 0.066744 127 127 0
-0.304099 -0.055141 0.022950 127 127 0
-0.206122 -0.007057 0.177886 127 127 0
-0.458796 0.000609 -0.016851 127 127 0
0.431977 0.057090 -0.174512 255 0 0
-0.830355 -0.057460 -0.033167 0 255 0
-0.209348 0.017238 0.158301 127 127 0
-0.059607 0.045168 -0.115172 255 0 0
-0.390603 -0.055141 0.085975 127 127 0
-0.415384 0.013474 -0.153926 255 0 0
-0.789961 -0.031845 -0.028285 0 255 0
-0.834944 0.026681 0.033203 0 0 255
-0.927897 0.034702 0.099192 0 0 255
0.298992 0.033581 0.289122 127 127 0
0.754993 0.033581 0.338073 127 127 0
0.408157 0.067549 -0.251755 255 0 0
-0.578729 0.045168 0.052865 255 0 0
-0.727299 0.061736 0.042622 0 0 255
-0.294520 -0.016020 -0.035809 255 0 0
-0.944653 -0.019888 -0.073713 0 255 0
-0.092465 0.022826 -0.202883 255 0 0
-0.469870 0.000609 0.002005 255 0 0
-0.863589 -0.017849 -0.018729 0 255 0
0.348433 0.033581 0.210410 127 127 0
-0.055791 0.017238 0.141564 127 127 0
0.796639 0.006374 -0.307074 255 0 0
0.654213 0.033581 0.285517 127 127 0
0.010546 -0.020145 0.244588 127 127 0
-0.085564 0.045168 -0.129140 255 0 0
0.505170 0.016684 0.193145 127 127 0
-0.590873 -0.043950 -0.013323 127 127 0
0.744932 0.000223 0.258740 127 127 0
-0.218259 0.056358 -0.138423 255 0 0
0.400651 -0.018196 0.319928 127 127 0
0.151541 -0.041316 0.269508 127 127 0
-0.459281 0.056358 -0.006025 255 0 0
-0.003072 0.033581 0.208587 127 127 0
-0.013259 -0.016020 -0.116729 255 0 0
-0.374314 0.017238 -0.044548 127 127 0
-0.391631 0.045168 -0.014573 255 0 0
-0.381757 0.000609 -0.154756 255 0 0
-0.287865 -0.043950 0.181848 127 127 0
-0.910158 0.049742 0.097328 0 0 255
-0.232086 -0.055141 0.066737 127 127 0
-0.225787 0.045168 -0.113868 255 0 0
-0.071101 0.027137 -0.192562 255 0 0
0.435692 -0.066331 0.309103 127 127 0
-0.033178 0.033581 0.196554 127 127 0
-0.049467 0.056358 -0.102813 255 0 0
0.304331 0.033581 0.254290 127 127 0
-0.215400 0.045168 -0.123928 255 0 0
-0.102028 0.050691 -0.060644 255 0 0
-0.787641 0.055928 0.037776 0 0 255
0.266487 0.033581 0.212169 127 127 0
-0.261152 -0.043950 -0.003165 127 127 0
-0.268398 0.049598 -0.141800 255 0 0
0.177248 -0.032364 -0.255695 255 0 0
0.357637 -0.066331 0.190850 127 127 0
-0.170980 0.045168 -0.114406 255 0 0
0.156152 -0.032364 -0.248571 255 0 0
-0.663343 0.000609 -0.028660 127 127 0
-0.783169 -0.043553 -0.036452 0 255 0
-0.397977 -0.033121 0.109501 127 127 0
0.742860 0.036683 -0.339498 255 0 0
-0.671787 0.022833 0.075196 255 0 0
0.578537 0.033581 0.323657 127 127 0
-0.613326 -0.011215 -0.056521 127 127 0
0.656008 -0.063457 0.341357 127 127 0
-0.809076 -0.069645 -0.078820 0 255 0
0.526875 -0.014902 0.332586 127 127 0
0.087746 0.033581 0.234490 127 127 0
-0.400721 0.019110 -0.159046 255 0 0
-0.284920 0.048342 0.030860 255 0 0
-0.859676 -0.053297 -0.033231 0 255 0
0.548419 -0.009331 0.196812 127 127 0
-0.473502 0.000609 -0.117125 255 0 0
0.793570 0.025944 -0.300883 255 0 0
0.549385 -0.018722 -0.180761 255 0 0
0.282232 -0.066331 0.196682 127 127 0
0.423708 -0.066331 0.277244 127 127 0
0.649400 0.035267 -0.197100 255 0 0
-0.471320 -0.043950 0.032430 127 127 0
0.148275 0.021316 0.268624 127 127 0
-0.861142 0.025113 0.024480 0 0 255
-0.287032 0.056358 -0.076088 255 0 0
-0.426249 0.000609 -0.095097 255 0 0
-0.286322 -0.055141 -0.010098 127 127 0
-0.784465 -0.066294 -0.026737 0 255 0
-0.678589 -0.043222 -0.060961 127 127 0
0.362612 -0.066331 0.303290 127 127 0
0.692552 -0.039316 0.226212 127 127 0
-0.265155 0.056358 -0.092514 255 0 0
-0.689182 0.046852 0.070034 0 0 255
0.444642 0.067549 -0.276696 255 0 0
-0.256048 0.000609 -0.066434 255 0 0
-0.340863 -0.016020 -0.020059 255 0 0
-0.124914 -0.055141 0.134624 127 127 0
-0.297350 -0.043950 0.016750 127 127 0
-0.523941 0.000609 0.045838 127 127 0
-0.050889 0.045168 -0.127534 255 0 0
0.397810 -0.032364 -0.225071 255 0 0
0.232339 0.033581 0.240952 127 127 0
0.505860 0.039617 -0.315221 255 0 0
-0.048409 -0.043950 0.131963 127 127 0
0.637311 -0.032364 -0.254909 255 0 0
-0.344566 -0.033690 0.105627 127 127 0
-0.702800 0.038380 0.057823 0 0 255
-0.293191 -0.055141 0.052884 127 127 0
-0.773008 -0.018114 -0.001261 0 255 0
-0.184667 -0.008942 -0.018993 255 0 0
-0.371946 0.000609 -0.134872 255 0 0
-0.299372 0.045168 -0.061273 255 0 0
-0.098914 0.000609 0.110273 127 127 0
0.206186 0.039868 -0.146204 255 0 0
-0.621235 0.031185 -0.030218 255 0 0
0.162062 -0.007025 -0.257141 255 0 0
0.243099 -0.032364 -0.182731 255 0 0
-0.251736 0.056358 -0.082482 255 0 0
-0.518888 -0.018963 0.030513 127 127 0
-0.746331 0.047977 0.032479 0 0 255
-0.401385 0.013892 -0.050581 127 127 0
-0.359898 0.056358 -0.066473 255 0 0
0.714128 -0.021095 0.232978 127 127 0
-0.280945 0.045168 -0.147238 255 0 0
-0.183090 0.045168 -0.054804 255 0 0
-0.220753 -0.055141 0.037445 127 127 0
-0.284894 0.000698 -0.182433 255 0 0
0.513803 -0.008742 -0.315849 255 0 0
-0.142681 0.045168 -0.157382 255 0 0
-0.466985 0.000609 0.118029 127 127 0
0.390348 -0.032364 -0.292255 255 0 0
-0.757650 -0.055375 -0.042943 0 255 0
-0.351536 0.045168 -0.026329 255 0 0
-0.061912 -0.032364 -0.207817 255 0 0
-0.328548 0.000609 0.039416 255 0 0
-0.814955 -0.062493 -0.042862 0 255 0
0.110326 -0.066331 0.254119 127 127 0
-0.336879 0.009701 -0.095163 255 0 0
-0.142604 0.024149 -0.194793 255 0 0
-0.307234 0.018124 -0.179906 255 0 0
0.223009 -0.066331 0.273277 127 127 0
-0.938709 -0.034068 -0.067137 0 255 0
0.422483 0.000655 0.189180 127 127 0
-0.403569 -0.043950 0.001809 127 127 0
0.574598 0.067549 -0.235106 255 0 0
0.324522 0.003405 -0.163971 255 0 0
-0.452904 -0.014407 0.060763 255 0 0
-0.066939 0.039496 -0.218337 255 0 0
-0.214524 0.051241 -0.171128 255 0 0
0.048974 -0.030873 -0.261156 255 0 0
0.309857 -0.007093 0.305557 127 127 0
-0.778324 0.057663 0.026103 0 0 255
-0.051848 0.009779 -0.190799 255 0 0
-0.075625 0.014685 -0.205601 255 0 0
0.078806 0.004323 0.312569 127 127 0
0.011854 -0.066331 0.235920 127 127 0
0.068277 0.067549 -0.119427 255 0 0
-0.178590 -0.016020 -0.177382 255 0 0
0.117121 0.023794 -0.128310 255 0 0
-0.803017 -0.045634 -0.077719 0 255 0
-0.258007 0.045168 -0.114872 255 0 0
-0.389082 -0.006428 0.054941 255 0 0
0.298878 -0.032364 -0.190529 255 0 0
-0.374159 -0.016020 0.017410 255 0 0
-0.872438 0.046429 0.054703 0 0 255
-0.154238 -0.055141 0.166908 127 127 0
-0.626577 0.000609 0.050655 255 0 0
0.350765 0.032875 0.182234 127 127 0
0.338260 0.007205 0.180758 127 127 0
-0.465909 -0.055141 -0.053000 127 127 0
0.631439 -0.032364 -0.302552 255 0 0
-0.600457 -0.028939 0.070764 127 127 0
-0.365732 -0.016020 -0.001574 255 0 0
0.490055 -0.066331 0.231446 127 127 0
-0.186612 0.000609 0.167794 127 127 0
-0.170077 0.000609 0.166292 127 127 0
-0.401242 -0.043950 0.054214 127 127 0
0.082630 0.014297 -0.335421 255 0 0
0.028049 0.003771 -0.106666 255 0 0
-0.443044 0.045168 0.031192 255 0 0
-0.722460 0.067067 0.077600 0 0 255
-0.374057 0.013120 -0.099540 255 0 0
-0.076430 0.000609 0.120033 127 127 0
-0.881056 0.043793 0.094269 0 0 255
0.462329 0.015056 -0.311395 255 0 0
0.497437 0.033581 0.316699 127 127 0
0.658429 0.033581 0.312485 127 127 0
-0.411960 0.045168 0.039105 255 0 0
-0.261917 0.045168 -0.166766 255 0 0
-0.465889 0.017238 0.043221 127 127 0
0.634645 0.043089 -0.193898 255 0 0
-0.720288 0.042395 0.047951 0 0 255
-0.112001 0.045168 -0.156223 255 0 0
-0.352672 -0.055141 0.105141 127 127 0
-0.256391 0.000609 0.035183 127 127 0
-0.368251 0.000609 -0.020991 255 0 0
-0.302067 0.045168 -0.032016 255 0 0
0.100550 0.033581 0.142205 127 127 0
0.551753 -0.066331 0.237885 127 127 0
-0.915258 -0.009684 -0.059089 0 255 0
-0.932967 0.045207 0.073835 0 0 255
-0.609242 0.000609 0.027611 127 127 0
0.315298 0.010890 -0.291059 255 0 0
-0.820443 0.060746 0.071696 0 0 255
0.146626 0.067549 -0.240556 255 0 0
0.341248 -0.032364 -0.266571 255 0 0
0.440329 0.016287 -0.309094 255 0 0
-0.077400 -0.001003 0.199348 127 127 0
-0.686179 0.012426 0.035841 0 0 255
-0.478050 0.056358 0.013213 255 0 0
-0.393051 0.017238 -0.012763 127 127 0
0.178558 0.067549 -0.168277 255 0 0
-0.768120 0.028483 0.022292 0 0 255
-0.501330 0.017155 0.010959 127 127 0
0.119728 -0.008800 -0.251503 255 0 0
0.784079 0.021496 0.312590 127 127 0
0.132613 0.056863 -0.131756 255 0 0
0.801295 -0.020964 -0.354956 255 0 0
0.533341 -0.032364 -0.224869 255 0 0
-0.828042 -0.040220 -0.010397 0 255 0
-0.405871 -0.043950 0.041133 127 127 0
0.378059 -0.007715 0.316786 127 127 0
-0.584521 0.038853 0.064024 255 0 0
0.596625 0.067549 -0.307155 255 0 0
-0.147642 -0.016020 -0.091555 255 0 0
0.500967 0.066460 -0.177353 255 0 0
-0.117724 -0.055141 0.162426 127 127 0
0.640952 -0.045137 0.339472 127 127 0
0.405077 0.067549 -0.236257 255 0 0
0.483120 0.067549 -0.276028 255 0 0
-0.491707 -0.027042 0.067802 127 127 0
-0.286152 -0.043950 0.006487 127 127 0
-0.229257 -0.027359 0.185009 127 127 0
0.741493 -0.032364 -0.327863 255 0 0
-0.285910 -0.055141 0.119662 127 127 0
0.251173 0.021529 0.293811 127 127 0
-0.046090 -0.019684 -0.221701 255 0 0
-0.766565 0.050157 0.022860 0 0 255
0.504544 -0.066331 0.314046 127 127 0
0.315455 -0.052814 0.177936 127 127 0
-0.516641 0.000609 0.108723 127 127 0
0.154822 0.052872 -0.136322 255 0 0
-0.064935 -0.043950 0.188356 127 127 0
-0.433306 0.056358 -0.037630 255 0 0
0.769130 -0.032364 -0.318733 255 0 0
-0.449759 0.017238 -0.006196 127 127 0
0.678159 -0.066331 0.323046 127 127 0
-0.593052 0.000609 -0.042398 255 0 0
0.466431 -0.032364 -0.240091 255 0 0
-0.061822 -0.029122 0.207593 127 127 0
-0.782139 -0.053505 -0.064227 0 255 0
0.587441 -0.032364 -0.198549 255 0 0
0.079963 -0.009507 0.344629 127 127 0
-0.349578 0.056358 -0.034992 255 0 0
0.302290 0.067549 -0.276811 255 0 0
0.163190 -0.066331 0.166309 127 127 0
-0.401457 -0.055141 0.074077 127 127 0
-0.417437 0.056358 -0.005371 255 0 0
0.658579 -0.066331 0.321643 127 127 0
-0.292522 0.017238 -0.021935 127 127 0
-0.460748 -0.043950 0.021263 127 127 0
-0.168986 -0.013682 0.197858 127 127 0
-0.761328 0.049263 0.068576 0 0 255
-0.859075 0.000609 0.015780 0 0 255
0.481017 -0.066331 0.199838 127 127 0
-0.924650 0.000605 -0.041846 0 255 0
0.714445 -0.027723 -0.214689 255 0 0
0.438804 0.033581 0.321305 127 127 0
-0.125777 -0.016020 -0.110859 255 0 0
-0.608356 -0.043950 0.001791 127 127 0
-0.670912 0.000609 -0.043793 127 127 0
-0.319850 -0.043950 -0.020122 127 127 0
-0.334820 0.017238 0.067528 127 127 0
-0.314640 -0.020573 0.121105 127 127 0
0.121644 -0.007176 0.263647 127 127 0
-0.410134 0.000609 -0.032988 255 0 0
-0.144555 0.017238 0.062157 127 127 0
-0.692829 -0.031546 -0.028062 0 255 0
0.761985 0.032606 -0.344071 255 0 0
0.571275 -0.063752 0.334315 127 127 0
-0.443543 0.000609 -0.118912 255 0 0
-0.208668 -0.016020 -0.088385 255 0 0
-0.196423 0.045168 -0.096783 255 0 0
0.333326 -0.066331 0.263704 127 127 0
0.320877 -0.032364 -0.258468 255 0 0
0.048674 0.067549 -0.189491 255 0 0
-0.887687 -0.021001 -0.055071 0 255 0
0.629306 0.067549 -0.254657 255 0 0
-0.971348 0.000609 0.066702 0 0 255
-0.165561 -0.016020 -0.083595 255 0 0
0.483336 -0.042467 0.192160 127 127 0
-0.428678 0.045168 -0.133287 255 0 0
0.044765 0.067549 -0.147328 255 0 0
0.758647 0.067549 -0.270282 255 0 0
-0.442200 -0.043950 -0.005145 127 127 0
-0.343046 -0.043950 0.032004 127 127 0
-0.876013 -0.040540 -0.071484 0 255 0
0.401455 0.051030 -0.304361 255 0 0
-0.279354 -0.016020 -0.012356 255 0 0
-0.795764 -0.047034 -0.058778 0 255 0
-0.376386 -0.055141 0.081685 127 127 0
-0.455066 0.045168 -0.014838 255 0 0
0.340313 -0.066331 0.289423 127 127 0
-0.042249 -0.037897 0.169884 127 127 0
0.074186 0.067549 -0.258024 255 0 0
0.155878 0.067549 -0.147760 255 0 0
0.144947 0.001744 -0.134299 255 0 0
0.357825 0.011295 0.182987 127 127 0
0.763632 0.054652 -0.257265 255 0 0
-0.101792 -0.012368 0.195281 127 127 0
-0.383551 -0.055141 -0.021364 127 127 0
-0.896998 0.000609 0.041548 0 0 255
-0.237971 0.056358 -0.093668 255 0 0
-0.052772 0.033471 -0.175234 255 0 0
-0.301282 -0.016020 -0.101014 255 0 0
-0.486548 -0.055141 0.016220 127 127 0
0.602361 -0.032364 -0.272661 255 0 0
0.218705 -0.032364 -0.162620 255 0 0
0.196524 0.010715 0.281197 127 127 0
0.135499 -0.066331 0.191497 127 127 0
0.400626 -0.004131 -0.171967 255 0 0
0.376945 0.020304 -0.301015 255 0 0
-0.235018 0.015667 -0.185305 255 0 0
-0.521337 0.045168 -0.093610 255 0 0
-0.302464 -0.004755 -0.124630 255 0 0
-0.663184 -0.036350 0.013565 127 127 0
-0.139398 -0.055141 0.115987 127 127 0
0.689419 -0.029542 -0.329048 255 0 0
-0.568024 -0.032777 0.094360 127 127 0
-0.763235 -0.034059 -0.064277 0 255 0
-0.132529 0.017238 0.192726 127 127 0
-0.889736 -0.049488 -0.089024 0 255 0
-0.350743 -0.016020 -0.046424 255 0 0
-0.694283 0.009840 0.058561 0 0 255
0.318481 -0.010697 0.178310 127 127 0
-0.867898 0.031243 0.039533 0 0 255
0.030876 0.043659 -0.234120 255 0 0
0.349884 0.026508 -0.166975 255 0 0
0.762314 0.033581 0.309290 127 127 0
-0.630023 0.000609 0.034099 127 127 0
-0.800008 0.060961 0.057453 0 0 255
-0.956126 -0.011521 -0.059548 0 255 0
0.002376 -0.032364 -0.189201 255 0 0
-0.060147 0.017238 0.113238 127 127 0
-0.418619 -0.055141 0.067916 127 127 0
0.048517 0.001770 0.311582 127 127 0
-0.255427 0.056358 -0.027139 255 0 0
-0.122512 -0.013804 0.205607 127 127 0
0.786511 -0.045803 0.316702 127 127 0
-0.507978 -0.030675 0.049530 127 127 0
-0.214578 0.000609 0.119799 127 127 0
0.567728 -0.023271 0.334192 127 127 0
-0.001700 0.022719 0.142589 127 127 0
0.328733 0.067549 -0.234226 255 0 0
0.793999 -0.008445 0.335355 127 127 0
0.484495 -0.037123 0.329293 127 127 0
0.372022 -0.032364 -0.226323 255 0 0
-0.387021 0.045168 -0.043847 255 0 0
-0.604805 -0.015227 0.067164 127 127 0
-0.546456 0.045168 -0.088228 255 0 0
-0.069649 0.017238 0.182011 127 127 0
0.620891 0.067549 -0.192800 255 0 0
-0.707718 0.000609 0.034696 0 0 255
-0.122918 0.056358 -0.115050 255 0 0
0.744486 -0.066331 0.286205 127 127 0
0.457362 0.067549 -0.224814 255 0 0
0.161725 -0.017889 -0.137736 255 0 0
-0.039302 -0.043950 0.102430 127 127 0
-0.542781 0.000609 -0.076225 255 0 0
0.368564 -0.066331 0.255568 127 127 0
-0.434586 0.000609 0.061582 255 0 0
0.532684 0.010804 -0.317075 255 0 0
0.640379 0.067549 -0.210877 255 0 0
0.722696 -0.055335 0.353016 127 127 0
0.225254 -0.031282 0.288030 127 127 0
0.264759 0.017871 0.296710 127 127 0
-0.913867 0.039621 0.075070 0 0 255
0.388382 -0.032364 -0.270901 255 0 0
-0.450250 0.045168 0.058814 255 0 0
0.686453 0.017441 0.224399 127 127 0
0.596830 -0.066331 0.232903 127 127 0
-0.166471 0.000609 0.085177 127 127 0
-0.013531 0.053145 -0.226955 255 0 0
-0.643572 0.000608 0.045065 255 0 0
-0.785710 -0.050762 -0.022365 0 255 0
-0.354702 0.024081 -0.098227 255 0 0
0.638873 -0.066331 0.282112 127 127 0
0.558454 -0.032364 -0.280607 255 0 0
-0.279622 0.056358 -0.094138 255 0 0
-0.353738 0.045168 -0.159029 255 0 0
0.038002 -0.002544 0.260249 127 127 0
0.014364 -0.033517 0.123785 127 127 0
-0.848989 -0.062257 -0.080484 0 255 0
-0.292316 -0.055141 0.036776 127 127 0
-0.221135 0.045168 -0.003782 255 0 0
0.184437 -0.035781 0.156862 127 127 0
0.511816 0.067549 -0.242081 255 0 0
-0.369425 0.045168 0.003332 255 0 0
-0.699241 -0.010421 -0.039446 0 255 0
-0.515204 -0.043950 0.059395 127 127 0
0.706274 -0.032364 -0.238190 255 0 0
-0.196002 0.045168 -0.026065 255 0 0
-0.411606 0.056358 0.006864 255 0 0
-0.292213 -0.043950 0.169016 127 127 0
-0.273501 -0.043950 0.144250 127 127 0
0.650647 0.067549 -0.234970 255 0 0
-0.142063 0.000609 0.078459 127 127 0
-0.023682 0.017238 0.117362 127 127 0
0.725217 0.067549 -0.275859 255 0 0
0.358489 -0.048174 0.183058 127 127 0
-0.358552 0.000609 -0.087535 255 0 0
-0.484526 0.017238 0.008525 127 127 0
-0.231782 0.016101 -0.151759 255 0 0
0.359167 -0.066331 0.278974 127 127 0
-0.812152 -0.036995 -0.013189 0 255 0
0.000973 -0.066331 0.211027 127 127 0
0.195973 0.033581 0.163559 127 127 0
-0.312868 -0.043950 0.072989 127 127 0
0.078510 -0.066331 0.210449 127 127 0
-0.163490 0.056358 -0.161555 255 0 0
0.692046 0.033581 0.243704 127 127 0
0.433976 0.033581 0.230621 127 127 0
-0.455162 0.031661 -0.138566 255 0 0
0.724581 -0.013923 -0.335551 255 0 0
-0.159066 0.011246 -0.192137 255 0 0
0.709402 0.002087 -0.213067 255 0 0
-0.222144 0.045168 -0.067874 255 0 0
-0.159772 -0.043950 0.128839 127 127 0
-0.890077 0.037894 0.077735 0 0 255
0.054360 -0.032364 -0.139263 255 0 0
0.713060 -0.043390 0.232629 127 127 0
0.158862 -0.032364 -0.197655 255 0 0
-0.502744 -0.043950 0.001282 127 127 0
-0.345345 0.056358 -0.080622 255 0 0
-0.242016 0.000609 0.129595 127 127 0
-0.184113 0.005085 0.026607 127 127 0
-0.135340 0.045168 -0.128403 255 0 0
0.354189 0.051240 -0.167454 255 0 0
-0.114243 -0.055141 0.110269 127 127 0
-0.869121 -0.007288 -0.044238 0 255 0
0.323592 -0.066331 0.286198 127 127 0
0.372582 0.004428 -0.169319 255 0 0
0.291226 0.013084 0.302001 127 127 0
-0.394350 0.056358 -0.031349 255 0 0
0.079244 0.017622 0.300741 127 127 0
0.501932 0.067549 -0.293402 255 0 0
0.388463 -0.060132 0.318233 127 127 0
-0.016495 -0.005123 0.142039 127 127 0
-0.786916 0.026360 0.039527 0 0 255
-0.862906 -0.048252 -0.088603 0 255 0
0.434555 -0.032364 -0.199804 255 0 0
-0.353957 -0.055141 0.087349 127 127 0
0.158467 -0.033621 0.151756 127 127 0
0.758154 -0.001923 -0.250406 255 0 0
-0.554837 0.000609 0.004114 127 127 0
-0.393005 0.017238 0.046924 127 127 0
-0.826697 0.006805 0.017337 0 0 255
-0.333195 -0.043950 0.096174 127 127 0
0.078622 -0.019014 0.308013 127 127 0
0.201195 0.060563 -0.267060 255 0 0
0.344793 -0.037485 0.311619 127 127 0
-0.643904 0.000609 -0.037028 127 127 0
-0.215510 -0.055141 0.071249 127 127 0
0.133017 0.067549 -0.236961 255 0 0
-0.302399 -0.043950 0.138326 127 127 0
-0.765359 0.021992 0.035998 0 0 255
-0.487370 0.017238 -0.015440 127 127 0
0.497405 -0.032364 -0.303206 255 0 0
0.718850 0.067549 -0.293665 255 0 0
0.035964 -0.002520 -0.234941 255 0 0
-0.806083 -0.063161 -0.066848 0 255 0
-0.020401 0.033581 0.220593 127 127 0
-0.870971 -0.028283 -0.039214 0 255 0
0.078955 -0.049774 0.303244 127 127 0
-0.173194 -0.016020 -0.097843 255 0 0
0.522304 -0.045874 0.194329 127 127 0
-0.743664 0.030780 0.068786 0 0 255
-0.173589 0.045168 -0.072625 255 0 0
-0.244456 0.000609 -0.132594 255 0 0
0.715780 0.003453 0.233519 127 127 0
-0.115700 -0.040960 0.206743 127 127 0
-0.102770 -0.016020 -0.091225 255 0 0
-0.435300 0.045168 0.055921 255 0 0
-0.404923 -0.055141 -0.042408 127 127 0
0.154905 0.038844 -0.136339 255 0 0
-0.371495 -0.055141 -0.042629 127 127 0
-0.209408 -0.016020 -0.130149 255 0 0
-0.476127 0.000609 -0.027045 255 0 0
-0.382630 -0.055141 0.037093 127 127 0
-0.360792 0.045168 -0.135507 255 0 0
-0.262028 -0.055141 0.005691 127 127 0
-0.465889 0.056358 0.027128 255 0 0
-0.476593 0.023738 -0.060710 255 0 0
-0.100973 -0.043950 0.148774 127 127 0
0.379028 0.058261 -0.169972 255 0 0
0.355528 -0.066331 0.233541 127 127 0
0.748049 0.033581 0.282971 127 127 0
0.089105 0.067549 -0.260402 255 0 0
-0.790792 -0.055787 -0.035364 0 255 0
-0.018187 0.033581 0.194554 127 127 0
-0.488520 0.045168 -0.086706 255 0 0
-0.387820 -0.055141 0.051397 127 127 0
0.397238 0.033581 0.197227 127 127 0
-0.058283 0.056358 -0.090725 255 0 0
-0.289934 -0.015100 0.032503 255 0 0
0.179952 0.022269 -0.261837 255 0 0
0.791988 0.018468 -0.352259 255 0 0
-0.352649 -0.043950 0.126622 127 127 0
-0.006186 -0.037301 0.130893 127 127 0
0.371836 0.033581 0.264295 127 127 0
0.618100 0.033581 0.326907 127 127 0
0.269280 -0.001092 0.297675 127 127 0
-0.746965 -0.034825 -0.005161 0 255 0
-0.950555 -0.043927 -0.092403 0 255 0
-0.300583 -0.055141 -0.004920 127 127 0
0.304914 0.010938 0.176546 127 127 0
0.102484 0.003051 -0.125054 255 0 0
-0.887817 0.039337 0.039365 0 0 255
-0.575962 -0.043950 0.070904 127 127 0
-0.404493 0.017238 0.063661 127 127 0
0.390494 0.033581 0.217399 127 127 0
-0.067193 0.056358 -0.152582 255 0 0
-0.224889 0.000609 0.158223 127 127 0
0.776280 0.067549 -0.340889 255 0 0
0.359025 0.031909 -0.298289 255 0 0
0.591160 0.033581 0.302959 127 127 0
-0.457760 0.000609 0.027401 255 0 0
-0.422432 -0.016020 -0.009961 255 0 0
0.757003 -0.032364 -0.278156 255 0 0
0.652235 -0.059932 0.215267 127 127 0
-0.036556 -0.066331 0.199008 127 127 0
-0.772343 -0.021472 -0.024026 0 255 0
0.302004 -0.011922 -0.161071 255 0 0
0.254328 -0.066331 0.236355 127 127 0
0.343746 -0.032364 -0.179981 255 0 0
-0.028630 -0.018693 -0.165431 255 0 0
-0.309162 0.056358 -0.030107 255 0 0
0.047464 -0.005808 0.297586 127 127 0
0.092147 -0.032364 -0.244693 255 0 0
-0.180955 0.000609 -0.138541 255 0 0
0.083864 0.067549 -0.146924 255 0 0
0.077356 -0.066331 0.179201 127 127 0
0.049533 -0.066331 0.209224 127 127 0
-0.722171 -0.038289 -0.052434 0 255 0
0.024595 0.033581 0.242881 127 127 0
0.183340 0.067549 -0.250679 255 0 0
0.439023 -0.066331 0.293935 127 127 0
-0.013992 -0.055141 0.145068 127 127 0
0.121072 -0.032364 -0.148173 255 0 0
-0.011686 -0.015307 0.153386 127 127 0
-0.189657 0.000609 -0.091276 255 0 0
-0.847349 -0.051769 -0.022337 0 255 0
-0.165053 0.056358 -0.189829 255 0 0
-0.258471 -0.010418 -0.146803 255 0 0
-0.355580 0.056358 -0.007038 255 0 0
-0.780901 0.012458 0.016171 0 0 255
0.374938 -0.032364 -0.182763 255 0 0
-0.058558 0.000609 -0.145008 255 0 0
0.166097 0.033581 0.221978 127 127 0
-0.074050 0.000609 0.099227 127 127 0
-0.048872 -0.022859 0.193592 127 127 0
0.729664 -0.032364 -0.226871 255 0 0
-0.042983 0.016404 0.098668 127 127 0
-0.755749 -0.011457 -0.035446 0 255 0
-0.369725 0.045168 0.044347 255 0 0
0.285531 0.025001 0.173816 127 127 0
-0.134281 0.045168 -0.092107 255 0 0
-0.292833 -0.043950 0.094968 127 127 0
-0.311158 0.045168 -0.089946 255 0 0
-0.003062 0.042285 -0.120920 255 0 0
-0.344874 0.056358 0.032028 255 0 0
-0.221540 -0.055141 0.010765 127 127 0
-0.438490 -0.055141 0.026961 127 127 0
-0.332872 0.000609 -0.160131 255 0 0
-0.802920 -0.047164 -0.019840 0 255 0
-0.803863 0.051385 0.025310 0 0 255
-0.303635 -0.002257 0.036738 127 127 0
-0.376612 -0.043950 0.019818 127 127 0
0.707958 -0.015205 0.349938 127 127 0
-0.133486 -0.055141 0.102528 127 127 0
-0.746654 -0.048287 -0.038786 0 255 0
-0.218821 0.056358 -0.084803 255 0 0
-0.144529 0.000609 -0.053557 255 0 0
0.134416 0.038565 -0.250485 255 0 0
-0.015476 0.056358 -0.124247 255 0 0
-0.391704 0.045168 -0.104396 255 0 0
-0.191850 -0.001835 0.194046 127 127 0
0.313336 -0.025244 0.306169 127 127 0
0.583265 0.051255 -0.184902 255 0 0
-0.096915 -0.043950 0.185692 127 127 0
0.507212 -0.066331 0.200836 127 127 0
-0.159041 0.045168 -0.061520 255 0 0
0.456089 0.033581 0.311263 127 127 0
0.547877 -0.032364 -0.269487 255 0 0
-0.540801 0.029700 0.033471 255 0 0
-0.445693 -0.008510 -0.052440 255 0 0
-0.638916 0.033151 -0.012634 255 0 0
-0.282793 -0.043950 -0.022517 127 127 0
0.043956 0.023780 0.125124 127 127 0
-0.437454 0.045168 -0.001450 255 0 0
-0.877838 -0.018094 -0.020390 0 255 0
0.424382 0.067549 -0.193210 255 0 0
-0.404551 0.045168 0.005010 255 0 0
0.457638 0.039771 -0.176244 255 0 0
-0.371052 -0.055141 -0.013654 127 127 0
-0.435066 -0.016020 0.020340 255 0 0
0.802354 -0.023671 -0.327095 255 0 0
-0.952343 0.029733 0.084854 0 0 255
0.095230 -0.020155 0.137880 127 127 0
-0.262538 0.000609 0.145000 127 127 0
-0.914956 -0.033617 -0.063279 0 255 0
-0.633506 0.014056 0.077122 255 0 0
0.143309 0.019119 0.148568 127 127 0
-0.414686 -0.043950 0.060326 127 127 0
-0.019547 -0.032364 -0.223046 255 0 0
0.189084 -0.007348 -0.143002 255 0 0
0.518952 -0.066331 0.222336 127 127 0
-1.003595 -0.023508 -0.114170 0 255 0
-0.948559 0.012824 0.055525 0 0 255
-0.123142 0.002506 0.057738 127 127 0
0.688498 -0.066331 0.245302 127 127 0
-0.184293 0.056358 -0.098186 255 0 0
-0.206915 0.045168 -0.065877 255 0 0
-0.408778 -0.043950 0.156247 127 127 0
-0.720684 0.014866 0.023911 0 0 255
0.636438 0.033581 0.329570 127 127 0
0.008659 0.067549 -0.144037 255 0 0
-0.054117 0.001279 0.233806 127 127 0
-0.271433 -0.016020 -0.090494 255 0 0
0.075018 0.026226 0.349181 127 127 0
-0.561530 -0.043950 0.032769 127 127 0
0.675924 -0.024514 0.344281 127 127 0
-0.192748 0.000609 0.080468 127 127 0
-0.082132 0.000609 -0.147416 255 0 0
-0.381454 -0.043950 0.163387 127 127 0
-0.784013 -0.012766 -0.023546 0 255 0
-0.142512 0.017238 0.126375 127 127 0
-0.163188 0.017238 0.042073 127 127 0
0.575430 0.067549 -0.185550 255 0 0
0.618131 -0.007421 0.207678 127 127 0
-0.281893 0.035624 -0.124774 255 0 0
-0.353415 0.045168 -0.115970 255 0 0
-0.320248 -0.016020 -0.048399 255 0 0
-0.290193 -0.012368 -0.130815 255 0 0
-0.201749 0.056358 -0.019332 255 0 0
-0.319580 0.000609 -0.137626 255 0 0
-0.142781 0.012278 -0.180996 255 0 0
-0.793650 0.071913 0.078809 0 0 255
-0.563394 -0.030453 -0.030337 127 127 0
0.311947 0.067549 -0.178173 255 0 0
-0.230429 -0.055141 0.093101 127 127 0
-0.043270 0.045168 -0.099472 255 0 0
-0.515559 0.003211 -0.108725 255 0 0
0.090965 -0.066331 0.197625 127 127 0
0.131092 0.067549 -0.160820 255 0 0
-0.825681 0.050600 0.046270 0 0 255
-0.736659 0.073156 0.059546 0 0 255
0.011245 0.000675 0.128593 127 127 0
-0.404075 -0.055141 -0.025156 127 127 0
-0.365041 -0.055141 0.037282 127 127 0
-0.067987 0.030991 0.214258 127 127 0
0.469098 -0.066331 0.254053 127 127 0
-0.559497 0.000609 0.086938 127 127 0
-0.196159 0.000609 -0.160259 255 0 0
0.063863 -0.066331 0.331254 127 127 0
0.051419 -0.005537 -0.270579 255 0 0
-0.910134 -0.048239 -0.092842 0 255 0
-0.577833 -0.029603 -0.040425 127 127 0
0.472897 0.033581 0.205306 127 127 0
0.457935 -0.005090 0.326707 127 127 0
-0.352742 -0.043950 -0.008069 127 127 0
0.673965 -0.032364 -0.289697 255 0 0
-0.422575 -0.043950 -0.040334 127 127 0
-0.174974 -0.001967 0.196860 127 127 0
-0.718996 -0.027941 -0.062450 0 255 0
0.270223 0.033581 0.295393 127 127 0
0.453322 0.033581 0.245277 127 127 0
-0.503445 -0.008595 0.132079 127 127 0
0.047050 -0.032364 -0.231430 255 0 0
0.684563 0.067549 -0.219862 255 0 0
-0.179311 0.000609 0.116730 127 127 0
0.552728 -0.015283 0.333952 127 127 0
-0.059515 -0.059276 0.205099 127 127 0
0.775385 0.022272 0.298934 127 127 0
-0.114073 -0.016020 -0.152111 255 0 0
0.756052 0.067549 -0.326520 255 0 0
-0.213957 0.030883 -0.170508 255 0 0
-0.854779 -0.041566 -0.067139 0 255 0
-0.296630 -0.043950 -0.020211 127 127 0
-0.489578 0.045168 -0.119135 255 0 0
0.000890 0.009131 0.121069 127 127 0
-0.605700 0.012087 -0.043944 255 0 0
-0.857307 -0.062894 -0.070292 0 255 0
-0.077649 -0.055141 0.141191 127 127 0
-0.010865 -0.028134 -0.146021 255 0 0
0.749202 0.003702 -0.239916 255 0 0
0.435617 -0.046846 0.324291 127 127 0
0.301798 -0.066331 0.242798 127 127 0
-0.305021 -0.038316 0.190015 127 127 0
-0.461820 0.045168 0.052488 255 0 0
-0.321684 -0.032327 0.117462 127 127 0
0.276414 -0.015344 0.172531 127 127 0
-0.102288 0.000609 0.081528 127 127 0
0.524739 0.024890 -0.178673 255 0 0
-0.082492 -0.016020 -0.085297 255 0 0
-0.300519 0.000609 0.113708 127 127 0
0.035210 -0.029793 0.253608 127 127 0
-0.962957 -0.021258 -0.068297 0 255 0
-0.088432 -0.034604 0.197509 127 127 0
-0.462938 -0.043950 -0.030885 127 127 0
0.595910 -0.018978 -0.319303 255 0 0
0.618008 -0.066331 0.306169 127 127 0
-0.404396 -0.016020 -0.071972 255 0 0
-0.623784 0.045168 0.073628 255 0 0
0.691079 -0.003936 -0.207697 255 0 0
-0.862021 -0.053052 -0.050256 0 255 0
0.472256 -0.046297 0.328175 127 127 0
0.290884 0.067549 -0.252986 255 0 0
-0.340451 -0.043950 0.007713 127 127 0
-0.644558 -0.043952 -0.038978 127 127 0
-0.106547 -0.055141 0.173788 127 127 0
0.426453 0.062209 -0.307493 255 0 0
-0.139915 0.056358 -0.055845 255 0 0
0.044943 0.036140 -0.111026 255 0 0
0.724382 -0.032364 -0.327941 255 0 0
-0.034266 0.045168 -0.121325 255 0 0
-0.236378 -0.016020 -0.027373 255 0 0
-0.035644 0.045168 -0.138266 255 0 0
0.286471 -0.014490 0.301076 127 127 0
-0.027142 -0.018182 0.170097 127 127 0
-0.383597 0.056358 0.001599 255 0 0
0.104607 -0.066331 0.215183 127 127 0
-0.110146 -0.055141 0.085365 127 127 0
-0.375135 -0.043950 -0.001329 127 127 0
-0.142484 -0.055141 0.138971 127 127 0
0.570156 0.001272 0.199526 127 127 0
0.421340 -0.066331 0.217413 127 127 0
-0.293707 0.017238 0.127901 127 127 0
-0.362397 -0.055141 0.023002 127 127 0
0.551298 -0.047333 0.197170 127 127 0
-0.111734 0.016579 0.207404 127 127 0
-0.500716 -0.005142 0.023146 255 0 0
0.042708 0.067549 -0.203274 255 0 0
0.520210 0.033581 0.301986 127 127 0
-0.600220 0.023948 -0.048638 255 0 0
-0.075296 -0.029090 0.213479 127 127 0
-0.282871 0.045168 -0.024903 255 0 0
-0.125182 0.056358 -0.053390 255 0 0
-0.034597 -0.066331 0.214782 127 127 0
-0.057683 -0.043950 0.121617 127 127 0
-0.371782 -0.007377 -0.089693 255 0 0
-0.111993 -0.043950 0.158452 127 127 0
-0.265490 0.000609 -0.103308 255 0 0
-0.752575 0.064568 0.050776 0 0 255
-0.358849 -0.012879 0.182064 127 127 0
-0.198474 0.000609 -0.048229 255 0 0
0.287643 -0.037409 0.174113 127 127 0
-0.302928 0.056358 -0.106897 255 0 0
0.265034 0.067549 -0.259133 255 0 0
0.710144 0.033581 0.315271 127 127 0
-0.183180 0.056358 -0.036059 255 0 0
-0.363195 -0.043950 0.086820 127 127 0
0.271129 -0.039608 0.298070 127 127 0
0.552511 -0.032364 -0.256566 255 0 0
0.664825 0.012389 0.342585 127 127 0
-0.726189 0.029959 0.014703 0 0 255
-0.262534 -0.016020 -0.049180 255 0 0
-0.552819 0.000609 0.035657 255 0 0
0.558036 0.014420 -0.318339 255 0 0
0.685856 -0.066331 0.337130 127 127 0
-0.200414 -0.016020 -0.098520 255 0 0
0.290225 -0.027436 -0.286367 255 0 0
0.536612 -0.066331 0.261797 127 127 0
0.481304 0.033581 0.309707 127 127 0
-0.346251 0.000609 -0.142832 255 0 0
-0.875290 -0.055535 -0.075564 0 255 0
-0.102947 0.045291 -0.201192 255 0 0
0.182078 -0.032364 -0.195153 255 0 0
-0.815475 0.051226 0.087376 0 0 255
-0.213544 -0.009793 -0.170057 255 0 0
-0.389007 0.045168 -0.138482 255 0 0
-0.799423 0.036001 0.024049 0 0 255
-0.323539 0.032075 -0.102347 255 0 0
-0.803019 -0.022487 -0.027387 0 255 0
-0.161692 0.056358 -0.114529 255 0 0
0.689256 -0.032364 -0.258144 255 0 0
-0.829505 0.027993 0.013198 0 0 255
0.784650 -0.030412 0.368907 127 127 0
-0.581999 0.045168 0.025509 255 0 0
0.575766 0.026574 -0.318540 255 0 0
-0.847947 -0.048635 -0.043890 0 255 0
-0.236217 0.045168 -0.121724 255 0 0
-0.086918 0.000609 0.180721 127 127 0
0.775947 0.067549 -0.303088 255 0 0
-0.123362 0.000609 -0.098955 255 0 0
-0.047646 0.067549 -0.194740 255 0 0
-0.938364 0.029841 0.086586 0 0 255
0.150238 -0.066331 0.163305 127 127 0
0.753342 -0.066331 0.322311 127 127 0
0.327877 -0.020907 -0.164369 255 0 0
-0.162020 -0.055141 0.056591 127 127 0
-0.980201 0.029813 0.094002 0 0 255
-0.073729 0.056358 -0.114845 255 0 0
0.546567 -0.066331 0.322500 127 127 0
0.005598 -0.054883 0.122323 127 127 0
0.502811 0.067549 -0.220252 255 0 0
-0.310776 0.045168 -0.153678 255 0 0
-0.005878 0.067549 -0.166168 255 0 0
-0.409501 0.000609 -0.007577 127 127 0
-0.210055 -0.055141 0.104880 127 127 0
-0.978450 -0.026498 -0.082054 0 255 0
-0.253227 -0.043950 0.079959 127 127 0
-0.239865 -0.043950 0.171496 127 127 0
-0.124191 0.000609 0.122999 127 127 0
-0.272612 0.045168 0.006885 255 0 0
0.662595 0.033581 0.328599 127 127 0
-0.457997 -0.043950 -0.007977 127 127 0
-0.733627 -0.001639 -0.039046 0 255 0
0.153131 -0.032364 -0.180341 255 0 0
-0.362657 0.056358 0.022268 255 0 0
-0.634293 0.000609 0.006613 255 0 0
0.789461 0.054986 -0.294049 255 0 0
0.042644 -0.066331 0.153002 127 127 0
0.626547 -0.000384 -0.321375 255 0 0
-0.620620 -0.030724 -0.058521 127 127 0
-0.810813 0.030550 0.034741 0 0 255
-0.203748 0.031316 -0.184927 255 0 0
0.356109 -0.001365 -0.167648 255 0 0
-0.264628 0.000609 -0.169824 255 0 0
-0.099414 -0.016020 -0.184382 255 0 0
-0.367252 0.000609 0.116550 127 127 0
-0.432856 -0.043950 -0.014205 127 127 0
0.754009 -0.066331 0.272369 127 127 0
-0.747419 0.026485 0.049215 0 0 255
-0.213647 0.000609 0.057866 127 127 0
0.753202 -0.038982 0.268616 127 127 0
-0.030044 -0.041817 0.237820 127 127 0
0.764168 -0.066331 0.352280 127 127 0
-0.112099 0.056358 -0.084366 255 0 0
-0.215987 0.000609 -0.101183 255 0 0
-0.410977 0.056358 -0.056599 255 0 0
-0.127980 0.045168 -0.151487 255 0 0
-0.447560 0.045168 -0.083413 255 0 0
-0.165269 0.045168 -0.127930 255 0 0
0.671617 -0.017912 0.220259 127 127 0
0.052145 -0.027594 0.127283 127 127 0
-0.390846 0.000609 0.029142 255 0 0
0.594181 -0.040235 0.203246 127 127 0
-0.676849 -0.043950 -0.007794 127 127 0
0.458023 -0.032364 -0.267007 255 0 0
-0.265923 0.017238 0.104540 127 127 0
-0.322652 0.056358 0.007105 255 0 0
-0.423470 0.030434 -0.151102 255 0 0
0.662452 -0.066331 0.298740 127 127 0
0.063558 0.001759 0.351782 127 127 0
0.627691 0.033581 0.296134 127 127 0
-0.001269 -0.062707 0.142124 127 127 0
0.164503 -0.066331 0.221639 127 127 0
-0.152770 -0.043950 0.102325 127 127 0
0.570781 -0.032364 -0.186527 255 0 0
-0.339786 0.000609 0.176059 127 127 0
0.299396 0.067549 -0.205281 255 0 0
-0.369509 0.000609 0.174041 127 127 0
-0.270985 -0.043950 0.072491 127 127 0
-0.097254 0.056358 -0.085421 255 0 0
0.300276 0.067549 -0.226905 255 0 0
-0.275583 0.056358 0.026594 255 0 0
-0.368206 0.016111 0.098057 127 127 0
0.345331 0.067549 -0.213632 255 0 0
0.524961 0.067549 -0.188245 255 0 0
-0.321669 -0.055141 0.011846 127 127 0
0.697362 -0.004467 -0.330433 255 0 0
-0.071730 -0.001492 0.230870 127 127 0
0.178313 0.035375 -0.261434 255 0 0
-0.146134 -0.002860 0.201668 127 127 0
-0.860490 0.021705 0.046617 0 0 255
0.054720 -0.065218 0.348034 127 127 0
0.258698 0.033581 0.278984 127 127 0
-0.520409 -0.040484 0.026803 127 127 0
-0.930551 -0.047510 -0.087792 0 255 0
0.427698 -0.004785 -0.174223 255 0 0
0.453314 0.033581 0.232323 127 127 0
0.073382 -0.037179 0.132571 127 127 0
-0.919099 0.000609 0.052116 0 0 255
-0.108040 0.000609 -0.118944 255 0 0
-0.871710 0.025896 0.056975 0 0 255
-0.281759 0.000609 0.076639 127 127 0
-0.817554 -0.051774 -0.049624 0 255 0
0.089460 0.033581 0.214685 127 127 0
-0.259269 -0.055141 0.042751 127 127 0
-0.070421 0.045168 -0.093188 255 0 0
-0.595081 0.045168 0.047838 255 0 0
-0.883513 -0.053515 -0.046192 0 255 0
0.363142 0.067549 -0.267656 255 0 0
0.548386 0.007223 -0.180670 255 0 0
-0.154934 0.000609 -0.138622 255 0 0
0.266329 -0.055412 0.170991 127 127 0
-0.006330 -0.008849 0.131049 127 127 0
0.082122 -0.017217 0.326507 127 127 0
-0.700631 -0.047044 -0.059112 0 255 0
0.385142 -0.028952 0.185870 127 127 0
-0.019425 0.056358 -0.108827 255 0 0
0.442508 0.033192 -0.309346 255 0 0
-0.441628 -0.043950 0.122228 127 127 0
-0.795162 -0.079144 -0.076291 0 255 0
0.084014 0.016973 0.287435 127 127 0
0.373192 -0.006006 0.184627 127 127 0
-0.497218 0.000609 -0.072255 255 0 0
-0.058459 0.020244 -0.198023 255 0 0
-0.810424 -0.027032 -0.001890 0 255 0
0.799626 0.067549 -0.338271 255 0 0
-0.444842 0.017238 0.038470 127 127 0
-0.356587 -0.055141 0.011350 127 127 0
-0.245142 0.045168 -0.094845 255 0 0
-0.187386 0.018209 -0.173799 255 0 0
-0.225661 0.000609 0.127927 127 127 0
-0.242568 -0.043950 0.130674 127 127 0
-0.680901 0.012545 0.063167 0 0 255
-0.829057 -0.004526 -0.022851 0 255 0
-0.030791 0.027283 0.174042 127 127 0
0.710864 -0.066331 0.323013 127 127 0
-0.400715 0.000609 0.039654 127 127 0
0.507233 0.003386 -0.177580 255 0 0
0.697633 0.001196 0.227723 127 127 0
-0.710493 -0.029164 -0.039719 0 255 0
0.385019 -0.066331 0.242820 127 127 0
0.293907 -0.026339 -0.159973 255 0 0
0.337016 0.067549 -0.171207 255 0 0
0.064581 0.067549 -0.222442 255 0 0
-0.038952 -0.032259 -0.222853 255 0 0
0.384756 0.031038 -0.302128 255 0 0
0.746005 -0.032364 -0.312143 255 0 0
-0.147425 0.045168 -0.051051 255 0 0
0.730399 -0.066331 0.307919 127 127 0
0.089126 -0.005139 0.136440 127 127 0
-0.496564 0.056358 0.005563 255 0 0
0.110176 -0.066331 0.241231 127 127 0
-0.325430 -0.055141 0.094663 127 127 0
-0.329400 -0.043950 0.079660 127 127 0
-0.213716 0.017238 0.110029 127 127 0
0.256975 -0.052243 0.295049 127 127 0
-0.275790 0.045168 -0.057870 255 0 0
-0.476098 -0.055141 0.028192 127 127 0
0.044629 -0.025873 0.281546 127 127 0
-0.741572 0.043971 0.079609 0 0 255
0.295507 0.004514 -0.160190 255 0 0
-0.088735 -0.055141 0.158268 127 127 0
0.051064 0.053177 -0.269092 255 0 0
-0.471493 -0.055141 -0.023972 127 127 0
-0.871282 -0.048157 -0.031061 0 255 0
-0.973585 0.000605 -0.066533 0 255 0
0.587524 -0.032364 -0.282478 255 0 0
-0.235007 -0.055141 0.016060 127 127 0
-0.175545 -0.043950 0.169768 127 127 0
-0.004539 0.014156 -0.122534 255 0 0
-0.376162 0.022189 -0.165864 255 0 0
-0.941850 -0.032500 -0.087259 0 255 0
0.094215 0.033979 -0.268309 255 0 0
-0.675979 -0.043951 -0.026396 127 127 0
-0.722613 -0.052475 -0.037950 0 255 0
0.780980 -0.019536 0.307615 127 127 0
-0.042183 0.045168 -0.162928 255 0 0
-0.808381 -0.069402 -0.028872 0 255 0
-0.033842 -0.028897 0.177341 127 127 0
-0.800071 -0.047611 -0.007197 0 255 0
0.045345 0.011116 0.284617 127 127 0
0.235623 -0.031361 -0.151209 255 0 0
-0.638722 -0.043950 -0.009751 127 127 0
-0.183395 0.056358 -0.134011 255 0 0
0.018599 -0.056245 0.120642 127 127 0
0.604046 -0.032364 -0.239291 255 0 0
-0.881413 0.065668 0.082772 0 0 255
-0.534577 -0.014582 0.115313 127 127 0
-0.751866 -0.005704 0.004871 0 255 0
-0.467428 -0.048536 0.047394 127 127 0
-0.248565 0.000609 -0.033939 255 0 0
0.704852 0.067549 -0.300848 255 0 0
-0.517590 0.000609 -0.094416 255 0 0
-0.337003 0.056358 -0.054215 255 0 0
-0.533792 0.000609 -0.095756 255 0 0
0.722018 -0.032364 -0.302090 255 0 0
0.618194 0.033581 0.259083 127 127 0
0.718532 0.037757 -0.334320 255 0 0
-0.280035 -0.055141 0.059904 127 127 0
-0.132519 0.045168 -0.115877 255 0 0
0.596777 0.035373 -0.186892 255 0 0
-0.968921 0.027130 0.076836 0 0 255
0.706069 -0.066331 0.231661 127 127 0
0.431797 -0.032364 -0.305937 255 0 0
0.226075 0.012582 -0.149586 255 0 0
-0.445354 0.015598 0.058665 127 127 0
0.685526 -0.032364 -0.208500 255 0 0
0.011023 0.044230 -0.230917 255 0 0
-0.169753 0.000609 0.035851 127 127 0
-0.011479 -0.066331 0.206669 127 127 0
0.046585 -0.066331 0.276754 127 127 0
-0.278844 -0.016020 0.013518 255 0 0
0.744064 0.010749 -0.339778 255 0 0
-0.565877 -0.043950 0.087536 127 127 0
-0.307757 -0.055141 0.050750 127 127 0
0.048447 -0.053569 0.322733 127 127 0
-0.103361 0.000609 0.174741 127 127 0
0.411878 0.033581 0.200178 127 127 0
-0.278646 0.000609 -0.004440 127 127 0
-0.407463 0.022914 -0.096086 255 0 0
-0.188370 0.017238 0.088662 127 127 0
-0.170883 0.000609 -0.175295 255 0 0
-0.225206 -0.043950 0.017774 127 127 0
0.473222 0.033581 0.269887 127 127 0
-0.625072 -0.013106 0.050383 127 127 0
0.761693 -0.066331 0.301424 127 127 0
0.435852 0.067549 -0.199655 255 0 0
-0.327669 0.024584 -0.176588 255 0 0
-0.055761 0.025184 0.233532 127 127 0
0.268694 0.006585 -0.282108 255 0 0
-0.327623 0.000609 -0.013925 255 0 0
0.095050 0.067549 -0.246049 255 0 0
-0.489339 0.000609 -0.011260 127 127 0
0.491818 0.011634 0.329910 127 127 0
0.581370 -0.030955 0.201238 127 127 0
-0.772096 0.005316 0.028720 0 0 255
-0.301419 0.000609 -0.086411 255 0 0
-0.132991 -0.043950 0.172991 127 127 0
-0.477883 0.017238 0.020156 127 127 0
0.285844 0.067549 -0.206343 255 0 0
-0.154773 0.045168 -0.161568 255 0 0
-0.203223 0.045168 -0.040338 255 0 0
0.411748 -0.032364 -0.203845 255 0 0
0.264655 0.033581 0.258010 127 127 0
-0.254939 0.034480 -0.184544 255 0 0
0.569398 0.033581 0.210860 127 127 0
-0.586779 0.000609 0.010990 255 0 0
0.702285 -0.066331 0.258439 127 127 0
0.474161 -0.000775 0.328370 127 127 0
0.704416 0.059913 -0.331670 255 0 0
-0.059803 -0.055141 0.100887 127 127 0
-0.167713 0.017238 0.104450 127 127 0
-0.323509 0.000609 0.162808 127 127 0
-0.360047 -0.055141 0.053370 127 127 0
-0.284531 0.000609 0.184218 127 127 0
0.568101 -0.032364 -0.239705 255 0 0
0.302583 -0.066331 0.177860 127 127 0
-0.407033 -0.043950 -0.016030 127 127 0
0.150677 0.029412 -0.254123 255 0 0
-0.420051 -0.015907 0.106189 127 127 0
-0.776521 0.026066 0.012953 0 0 255
-0.347287 -0.055141 0.067327 127 127 0
-0.465057 -0.055141 0.001319 127 127 0
0.398695 -0.066331 0.198264 127 127 0
0.065480 -0.066331 0.198650 127 127 0
-0.320483 -0.043950 0.111004 127 127 0
-0.134175 -0.015049 -0.044441 255 0 0
0.455907 0.033581 0.269994 127 127 0
-0.264588 -0.011093 0.192771 127 127 0
-0.011949 0.009381 -0.227210 255 0 0
0.009782 0.022440 -0.123462 255 0 0
-0.069038 0.022841 0.231319 127 127 0
-0.472862 -0.043950 -0.016072 127 127 0
0.329836 -0.017984 0.179715 127 127 0
0.150937 0.002802 0.269344 127 127 0
0.459436 -0.037960 0.326861 127 127 0
0.780982 0.007620 -0.280989 255 0 0
0.209953 0.003907 0.284475 127 127 0
-0.227093 -0.020814 0.166386 127 127 0
0.499529 -0.023861 0.330561 127 127 0
-0.439096 0.045168 -0.035638 255 0 0
0.078338 0.067549 -0.283751 255 0 0
0.663932 -0.032364 -0.253554 255 0 0
-0.865979 0.008409 0.048203 0 0 255
0.076343 -0.055289 0.133298 127 127 0
0.524554 0.033581 0.236457 127 127 0
-0.216893 -0.055141 0.052455 127 127 0
-0.588169 -0.043951 -0.035839 127 127 0
0.371008 0.067549 -0.293870 255 0 0
-0.484649 -0.016020 0.010340 255 0 0
-0.428569 -0.043950 -0.001484 127 127 0
-0.470461 0.000609 0.102497 127 127 0
0.231660 0.046552 -0.150535 255 0 0
-0.053838 -0.055141 0.157985 127 127 0
0.324980 0.067549 -0.165106 255 0 0
-0.184027 0.056358 -0.111339 255 0 0
-0.231499 0.028971 -0.185439 255 0 0
0.273979 -0.022417 -0.157185 255 0 0
0.408899 0.067549 -0.190381 255 0 0
0.753044 0.003044 0.360141 127 127 0
-0.171972 0.000609 0.051411 127 127 0
-0.222591 0.017238 0.069014 127 127 0
-0.477858 0.045168 -0.025602 255 0 0
0.038427 -0.066331 0.194111 127 127 0
0.177077 0.018567 0.155443 127 127 0
-0.228627 0.000609 -0.077180 255 0 0
0.763279 0.056158 -0.344409 255 0 0
0.441868 0.033581 0.272351 127 127 0
-0.898020 0.053090 0.059102 0 0 255
-0.293433 -0.010460 0.132074 127 127 0
-0.486693 0.045168 0.025441 255 0 0
-0.562808 0.023062 0.051700 255 0 0
-0.399683 0.055578 0.056276 255 0 0
0.032884 -0.003099 0.248611 127 127 0
-0.821905 0.050016 0.028846 0 0 255
-0.524513 0.017977 0.013959 255 0 0
0.683677 0.024992 -0.328201 255 0 0
0.578297 0.067549 -0.281383 255 0 0
-0.060214 0.044437 -0.199941 255 0 0
0.647693 -0.032364 -0.285065 255 0 0
-0.464441 -0.043950 0.101741 127 127 0
-0.378745 0.045168 -0.071818 255 0 0
0.480221 -0.066331 0.303789 127 127 0
-0.201244 -0.043950 0.050161 127 127 0
0.163172 0.067549 -0.234920 255 0 0
0.072348 -0.032364 -0.225399 255 0 0
-0.501703 -0.013655 -0.001733 255 0 0
-0.844030 0.057276 0.085392 0 0 255
-0.147988 0.000609 0.154480 127 127 0
-0.880430 -0.029461 -0.048146 0 255 0
0.177114 0.053559 -0.261130 255 0 0
-0.872118 -0.058037 -0.090277 0 255 0
-0.835818 -0.066805 -0.077686 0 255 0
-0.028637 -0.043950 0.150552 127 127 0
0.004108 0.033581 0.232645 127 127 0
0.174498 -0.007982 0.154945 127 127 0
-0.701758 -0.032005 -0.059316 127 127 0
0.044590 -0.003550 0.281381 127 127 0
-0.246797 -0.043950 0.104985 127 127 0
-0.286196 0.000609 -0.169799 255 0 0
0.016630 0.033581 0.189266 127 127 0
-0.128104 0.056358 -0.086587 255 0 0
-0.892489 -0.023274 -0.041932 0 255 0
0.435588 -0.066331 0.228425 127 127 0
0.154086 -0.066331 0.242157 127 127 0
-0.112758 -0.055141 0.144153 127 127 0
0.662481 -0.032364 -0.218742 255 0 0
-0.379548 -0.016020 -0.002015 255 0 0
-0.373569 0.017238 0.081924 127 127 0
-0.446111 0.045168 -0.096632 255 0 0
-0.784773 0.046112 0.057733 0 0 255
0.713572 0.025452 0.351111 127 127 0
-0.075258 -0.034782 0.199705 127 127 0
0.529219 -0.032364 -0.201378 255 0 0
0.340670 0.067549 -0.291636 255 0 0
0.182259 0.067549 -0.189970 255 0 0
-0.021237 -0.066331 0.223684 127 127 0
-0.299493 0.000609 -0.172531 255 0 0
-0.205102 -0.042625 0.191837 127 127 0
0.573148 0.005379 -0.183486 255 0 0
0.357063 -0.018297 -0.167745 255 0 0
0.169643 0.033581 0.264509 127 127 0
-0.327328 0.000609 0.072422 127 127 0
0.136301 -0.066331 0.221198 127 127 0
0.780448 -0.021165 -0.280204 255 0 0
-0.452146 -0.055141 0.054117 127 127 0
-0.148707 -0.016020 -0.137987 255 0 0
0.113494 -0.032364 -0.250905 255 0 0
-0.110613 -0.043950 0.183009 127 127 0
0.480248 -0.032364 -0.281124 255 0 0
0.273632 0.020992 0.172139 127 127 0
0.066815 0.024716 -0.337875 255 0 0
0.188642 -0.006849 0.157672 127 127 0
-0.434653 0.017238 0.018114 127 127 0
0.421351 -0.002149 -0.306904 255 0 0
-0.436601 0.019418 -0.086615 255 0 0
0.051379 -0.020540 0.344578 127 127 0
0.208167 0.033581 0.166967 127 127 0
-0.025883 0.042444 -0.145854 255 0 0
-0.005273 0.067549 -0.202451 255 0 0
-0.286825 0.000609 0.100340 127 127 0
-0.859534 0.056491 0.044858 0 0 255
-0.606270 0.045168 0.071929 255 0 0
-0.636592 0.045168 0.007165 255 0 0
0.356707 -0.012054 0.313495 127 127 0
-0.783375 0.079179 0.070072 0 0 255
-0.738284 -0.055726 -0.032900 0 255 0
0.452897 0.067549 -0.244727 255 0 0
-0.392266 0.045168 0.040772 255 0 0
0.606568 0.025773 0.205487 127 127 0
-0.745079 0.009439 0.029620 0 0 255
-0.154143 -0.031343 0.186552 127 127 0
-0.303999 -0.024622 0.126609 127 127 0
-0.819737 -0.007517 -0.033940 0 255 0
-0.845286 0.000605 -0.032626 0 255 0
-0.362120 0.045168 -0.075582 255 0 0
-0.037653 0.000609 -0.133853 255 0 0
-0.137299 -0.016020 -0.159455 255 0 0
