-0.045735 -0.016313 0.013331 0.000000 0.500000 0.500000
0.250226 -0.019974 -0.250009 0.600000 0.000000 0.300000
-0.027466 0.033944 -0.218053 0.600000 0.000000 0.300000
0.123906 -0.018436 0.355071 0.000000 0.500000 0.500000
0.049400 -0.036953 0.393126 0.000000 0.500000 0.500000
0.472692 -0.016868 -0.507305 0.600000 0.000000 0.300000
-0.132269 0.017020 -0.071632 0.600000 0.000000 0.300000
0.180135 0.033944 -0.305372 0.600000 0.000000 0.300000
-0.088993 -0.003051 0.087171 0.300000 0.600000 0.000000
-0.806627 0.017020 0.344114 0.300000 0.600000 0.000000
0.403115 -0.036953 0.588333 0.000000 0.500000 0.500000
-0.655449 0.003371 0.236683 0.300000 0.600000 0.000000
-0.051981 0.016483 -0.053924 0.300000 0.600000 0.000000
-0.316110 0.000644 -0.037743 0.500000 0.000000 0.500000
0.438256 -0.004174 0.553846 0.000000 0.500000 0.500000
-0.265678 0.016019 0.038973 0.300000 0.600000 0.000000
-0.073752 0.016921 0.114137 0.300000 0.600000 0.000000
0.311856 0.033944 -0.638464 0.600000 0.000000 0.300000
0.122517 -0.019974 -0.247042 0.600000 0.000000 0.300000
-0.593156 -0.003051 0.264324 0.300000 0.600000 0.000000
-0.112567 0.017020 0.102105 0.300000 0.600000 0.000000
-0.288558 -0.003051 0.114258 0.300000 0.600000 0.000000
0.413922 0.018757 -0.411496 0.600000 0.000000 0.300000
0.021426 -0.019974 -0.478622 0.600000 0.000000 0.300000
0.288689 0.007919 0.665973 0.000000 0.500000 0.500000
0.386240 0.020064 -0.280650 0.600000 0.000000 0.300000
-0.293008 0.017020 0.176964 0.300000 0.600000 0.000000
0.363251 -0.012028 -0.581232 0.600000 0.000000 0.300000
-0.001814 0.017020 -0.231138 0.600000 0.000000 0.300000
0.135190 0.033944 -0.321430 0.600000 0.000000 0.300000
-0.105996 -0.003051 -0.071743 0.600000 0.000000 0.300000
0.181575 0.033944 -0.142618 0.600000 0.000000 0.300000
-0.184921 -0.000340 -0.052446 0.500000 0.000000 0.500000
0.081161 0.033944 -0.138774 0.600000 0.000000 0.300000
0.352840 0.014904 0.338651 0.000000 0.500000 0.500000
-0.596180 0.000738 -0.203126 0.500000 0.000000 0.500000
0.129320 -0.000170 -0.362829 0.600000 0.000000 0.300000
0.456398 -0.020468 -0.383044 0.600000 0.000000 0.300000
-0.074748 -0.003051 0.061824 0.300000 0.600000 0.000000
-0.589889 -0.001546 0.295802 0.300000 0.600000 0.000000
0.395997 -0.020260 -0.594335 0.600000 0.000000 0.300000
0.359749 0.016965 0.625097 0.000000 0.500000 0.500000
-0.007627 0.009851 -0.068579 0.600000 0.000000 0.300000
-0.478267 0.016918 0.261407 0.300000 0.600000 0.000000
0.410905 0.016965 0.347312 0.000000 0.500000 0.500000
-0.354958 0.017020 0.195223 0.300000 0.600000 0.000000
0.077141 0.033944 -0.282952 0.600000 0.000000 0.300000
0.126993 0.033944 -0.158169 0.600000 0.000000 0.300000
0.130734 0.033944 -0.115797 0.600000 0.000000 0.300000
0.036077 0.033944 -0.247053 0.600000 0.000000 0.300000
0.465023 0.033944 -0.497980 0.600000 0.000000 0.300000
-0.018674 -0.009014 -0.420498 0.600000 0.000000 0.300000
0.200544 0.033944 -0.229500 0.600000 0.000000 0.300000
0.062476 -0.033299 0.165437 0.000000 0.500000 0.500000
-0.214064 -0.018295 -0.021649 0.500000 0.000000 0.500000
0.057478 0.016965 0.179020 0.000000 0.500000 0.500000
-0.138398 -0.016316 0.066590 0.500000 0.000000 0.500000
-0.111458 0.011472 -0.148642 0.600000 0.000000 0.300000
0.026362 -0.016950 0.049405 0.000000 0.500000 0.500000
-0.515547 -0.018322 -0.168476 0.500000 0.000000 0.500000
-0.353296 -0.016331 -0.138655 0.500000 0.000000 0.500000
-0.243603 0.017020 0.170564 0.300000 0.600000 0.000000
-0.006393 -0.003051 -0.196686 0.600000 0.000000 0.300000
0.249748 -0.036232 0.621266 0.000000 0.500000 0.500000
-0.035964 0.015513 0.037017 0.300000 0.600000 0.000000
-0.298426 -0.000333 -0.077953 0.500000 0.000000 0.500000
0.026115 -0.018279 0.156900 0.000000 0.500000 0.500000
-0.416291 0.001580 0.105313 0.300000 0.600000 0.000000
0.051042 -0.036953 0.192398 0.000000 0.500000 0.500000
-0.185835 0.016324 -0.016755 0.300000 0.600000 0.000000
-0.165231 0.001188 0.023667 0.500000 0.000000 0.500000
-0.399906 -0.017096 -0.070311 0.500000 0.000000 0.500000
0.021852 -0.019974 -0.327129 0.600000 0.000000 0.300000
0.164495 -0.019974 -0.295100 0.600000 0.000000 0.300000
-0.634714 -0.003051 0.252379 0.300000 0.600000 0.000000
0.162203 0.015971 -0.101254 0.600000 0.000000 0.300000
0.040077 0.033944 -0.458505 0.600000 0.000000 0.300000
0.067361 -0.036953 0.514065 0.000000 0.500000 0.500000
0.151534 0.004530 0.589702 0.000000 0.500000 0.500000
0.283176 0.015940 -0.672714 0.600000 0.000000 0.300000
-0.103190 0.017020 0.133040 0.300000 0.600000 0.000000
-0.137996 -0.003051 0.117951 0.300000 0.600000 0.000000
0.031620 0.002128 -0.243768 0.600000 0.000000 0.300000
-0.034740 -0.005523 -0.305496 0.600000 0.000000 0.300000
0.042194 0.016965 0.337846 0.000000 0.500000 0.500000
-0.013980 0.016965 0.439344 0.000000 0.500000 0.500000
-0.063167 -0.016305 0.025831 0.000000 0.500000 0.500000
0.345129 -0.020125 -0.613086 0.600000 0.000000 0.300000
0.020611 -0.036953 0.292388 0.000000 0.500000 0.500000
-0.032204 -0.027884 0.400021 0.000000 0.500000 0.500000
0.399983 0.033944 -0.338122 0.600000 0.000000 0.300000
-0.451826 -0.003051 0.210546 0.300000 0.600000 0.000000
-0.065971 -0.003051 -0.019901 0.300000 0.600000 0.000000
-0.022975 -0.018333 -0.044854 0.000000 0.500000 0.500000
0.028304 -0.000295 0.129761 0.000000 0.500000 0.500000
0.339635 0.015674 0.329711 0.000000 0.500000 0.500000
0.056758 0.024662 -0.169049 0.600000 0.000000 0.300000
0.217421 0.021786 -0.659613 0.600000 0.000000 0.300000
0.390650 -0.016357 -0.195119 0.600000 0.000000 0.300000
0.221598 -0.005639 -0.612922 0.600000 0.000000 0.300000
0.066238 0.021526 -0.190629 0.600000 0.000000 0.300000
-0.302666 -0.000362 -0.148269 0.500000 0.000000 0.500000
-0.114100 -0.003051 -0.115078 0.600000 0.000000 0.300000
0.025965 -0.005938 0.546064 0.000000 0.500000 0.500000
0.327498 -0.007439 -0.311102 0.600000 0.000000 0.300000
0.000655 0.033944 -0.278131 0.600000 0.000000 0.300000
0.237520 -0.042827 0.232199 0.000000 0.500000 0.500000
-0.032083 0.013671 0.401891 0.000000 0.500000 0.500000
-0.036637 0.016536 -0.045115 0.300000 0.600000 0.000000
0.025183 0.033944 -0.519107 0.600000 0.000000 0.300000
0.392025 0.006650 -0.549981 0.600000 0.000000 0.300000
0.052215 0.004633 -0.189744 0.600000 0.000000 0.300000
0.045474 0.009827 -0.142213 0.600000 0.000000 0.300000
0.244161 -0.018656 -0.136231 0.600000 0.000000 0.300000
-0.016695 -0.036953 0.234338 0.000000 0.500000 0.500000
-0.603028 0.017020 0.260775 0.300000 0.600000 0.000000
0.359685 0.011481 -0.276634 0.600000 0.000000 0.300000
-0.202236 -0.000362 -0.110640 0.500000 0.000000 0.500000
-0.753495 -0.018100 -0.305709 0.500000 0.000000 0.500000
0.354340 -0.036953 0.315599 0.000000 0.500000 0.500000
0.393527 -0.036378 -0.694263 0.600000 0.000000 0.300000
0.009384 0.033944 -0.469308 0.600000 0.000000 0.300000
0.029704 -0.036953 0.255078 0.000000 0.500000 0.500000
0.203462 -0.020436 -0.655461 0.600000 0.000000 0.300000
0.043438 -0.019851 0.565347 0.000000 0.500000 0.500000
0.000036 -0.003051 -0.127291 0.600000 0.000000 0.300000
0.252277 0.009585 -0.669981 0.600000 0.000000 0.300000
-0.396437 -0.018318 -0.093683 0.500000 0.000000 0.500000
0.422559 -0.020093 -0.520802 0.600000 0.000000 0.300000
0.131480 0.021322 -0.243464 0.600000 0.000000 0.300000
-0.049732 0.016836 -0.256737 0.600000 0.000000 0.300000
0.016410 0.008708 -0.118816 0.600000 0.000000 0.300000
-0.042600 0.017020 -0.144811 0.600000 0.000000 0.300000
-0.418706 -0.000356 -0.175133 0.500000 0.000000 0.500000
-0.089204 0.016019 -0.076731 0.600000 0.000000 0.300000
-0.057904 0.016965 0.237867 0.000000 0.500000 0.500000
-0.105524 -0.002880 -0.148229 0.600000 0.000000 0.300000
-0.022917 0.015857 -0.001261 0.300000 0.600000 0.000000
0.367604 -0.024387 0.567238 0.000000 0.500000 0.500000
0.005717 -0.003051 -0.228631 0.600000 0.000000 0.300000
0.153756 0.029065 0.237611 0.000000 0.500000 0.500000
-0.019845 0.002103 -0.334730 0.600000 0.000000 0.300000
-0.146359 -0.016300 0.005342 0.500000 0.000000 0.500000
0.035701 0.033944 -0.389005 0.600000 0.000000 0.300000
0.363999 -0.036953 0.594575 0.000000 0.500000 0.500000
-0.029612 0.000650 0.211805 0.000000 0.500000 0.500000
-0.493533 0.017020 0.186501 0.300000 0.600000 0.000000
0.210344 0.016965 0.302648 0.000000 0.500000 0.500000
-0.494043 0.000632 -0.213538 0.500000 0.000000 0.500000
-0.092183 -0.000306 0.061908 0.500000 0.000000 0.500000
0.077001 0.030727 -0.584269 0.600000 0.000000 0.300000
-0.131734 0.000644 -0.054080 0.500000 0.000000 0.500000
-0.554412 -0.003051 0.231546 0.300000 0.600000 0.000000
0.151388 0.016965 0.324007 0.000000 0.500000 0.500000
-0.312665 0.000641 -0.127150 0.500000 0.000000 0.500000
-0.880248 0.012135 0.361301 0.300000 0.600000 0.000000
0.202391 -0.026624 0.243360 0.000000 0.500000 0.500000
0.282081 0.008732 0.261063 0.000000 0.500000 0.500000
-0.046208 -0.003051 -0.114562 0.600000 0.000000 0.300000
0.344412 -0.020002 -0.300366 0.600000 0.000000 0.300000
-0.248972 -0.017600 0.028821 0.500000 0.000000 0.500000
0.264752 0.023398 0.254612 0.000000 0.500000 0.500000
0.204445 -0.015177 -0.120266 0.600000 0.000000 0.300000
0.378709 -0.020961 -0.701425 0.600000 0.000000 0.300000
0.065770 -0.019974 -0.560612 0.600000 0.000000 0.300000
-0.443755 0.001305 -0.130877 0.500000 0.000000 0.500000
0.066512 -0.019974 -0.232683 0.600000 0.000000 0.300000
0.411175 0.032045 -0.218621 0.600000 0.000000 0.300000
0.080016 -0.019974 -0.412281 0.600000 0.000000 0.300000
0.218417 0.029065 0.231472 0.000000 0.500000 0.500000
-0.274729 0.000633 -0.131294 0.500000 0.000000 0.500000
0.190130 -0.036953 0.253081 0.000000 0.500000 0.500000
-0.215521 0.017020 0.184786 0.300000 0.600000 0.000000
0.022080 0.016965 0.369848 0.000000 0.500000 0.500000
0.396831 -0.036953 0.379048 0.000000 0.500000 0.500000
0.144586 0.033944 -0.220275 0.600000 0.000000 0.300000
-0.030415 0.017020 -0.118001 0.600000 0.000000 0.300000
-0.044189 0.000679 0.059326 0.000000 0.500000 0.500000
-0.203119 -0.018293 0.008762 0.500000 0.000000 0.500000
-0.266583 -0.003051 0.139390 0.300000 0.600000 0.000000
0.046650 -0.011486 0.170935 0.000000 0.500000 0.500000
-0.060555 -0.003051 0.015916 0.300000 0.600000 0.000000
0.037136 -0.018414 0.192815 0.000000 0.500000 0.500000
-0.388901 -0.018305 -0.108106 0.500000 0.000000 0.500000
0.095569 -0.042827 0.249583 0.000000 0.500000 0.500000
-0.387581 -0.003051 0.216052 0.300000 0.600000 0.000000
0.035038 -0.036953 0.547667 0.000000 0.500000 0.500000
-0.422658 -0.018308 -0.125151 0.500000 0.000000 0.500000
0.263725 0.033596 -0.671776 0.600000 0.000000 0.300000
-0.043006 0.000497 0.202080 0.000000 0.500000 0.500000
-0.445375 -0.016335 -0.115829 0.500000 0.000000 0.500000
0.410764 -0.037607 -0.580924 0.600000 0.000000 0.300000
-0.103786 -0.016305 0.010467 0.500000 0.000000 0.500000
0.401074 -0.020024 -0.370722 0.600000 0.000000 0.300000
0.115767 0.015401 0.367091 0.000000 0.500000 0.500000
-0.484364 -0.016166 -0.127197 0.500000 0.000000 0.500000
-0.355261 0.017020 0.158385 0.300000 0.600000 0.000000
-0.586874 -0.000356 -0.235571 0.500000 0.000000 0.500000
0.382610 -0.020709 -0.623454 0.600000 0.000000 0.300000
0.009652 0.033944 -0.383766 0.600000 0.000000 0.300000
0.198141 -0.026679 0.210217 0.000000 0.500000 0.500000
-0.154146 0.000640 -0.071489 0.500000 0.000000 0.500000
-0.101278 -0.000317 0.030563 0.500000 0.000000 0.500000
0.422812 0.033274 -0.604954 0.600000 0.000000 0.300000
0.003215 0.016965 0.344623 0.000000 0.500000 0.500000
-0.762369 -0.001359 -0.331449 0.500000 0.000000 0.500000
0.250310 0.017457 -0.617742 0.600000 0.000000 0.300000
0.307582 -0.038109 -0.628813 0.600000 0.000000 0.300000
0.271318 0.028681 -0.617522 0.600000 0.000000 0.300000
-0.442889 -0.003002 0.251989 0.300000 0.600000 0.000000
0.085266 0.016965 0.316911 0.000000 0.500000 0.500000
0.105976 -0.019974 -0.271691 0.600000 0.000000 0.300000
0.454787 -0.003871 0.408559 0.000000 0.500000 0.500000
0.046971 -0.019974 -0.538353 0.600000 0.000000 0.300000
0.202765 -0.000782 0.243427 0.000000 0.500000 0.500000
0.052085 -0.001430 0.119966 0.000000 0.500000 0.500000
-0.403346 0.017020 0.187936 0.300000 0.600000 0.000000
0.124890 -0.036953 0.583349 0.000000 0.500000 0.500000
-0.575646 -0.000353 -0.223722 0.500000 0.000000 0.500000
-0.105192 0.016989 -0.078880 0.600000 0.000000 0.300000
-0.077230 0.022027 -0.222105 0.600000 0.000000 0.300000
-0.052911 0.000650 -0.012472 0.500000 0.000000 0.500000
0.106033 -0.019974 -0.295670 0.600000 0.000000 0.300000
-0.005909 -0.000291 -0.473968 0.600000 0.000000 0.300000
-0.716245 -0.018316 -0.310760 0.500000 0.000000 0.500000
0.062974 0.016965 0.538616 0.000000 0.500000 0.500000
-0.003663 -0.036953 0.357913 0.000000 0.500000 0.500000
0.085662 -0.019974 -0.372756 0.600000 0.000000 0.300000
0.420528 -0.002190 -0.452919 0.600000 0.000000 0.300000
-0.281971 0.008324 0.031463 0.300000 0.600000 0.000000
0.309329 0.016965 0.648892 0.000000 0.500000 0.500000
0.080825 0.033944 -0.541408 0.600000 0.000000 0.300000
-0.048790 0.017020 -0.131126 0.600000 0.000000 0.300000
0.072065 -0.019974 -0.428807 0.600000 0.000000 0.300000
0.461376 0.002737 0.463441 0.000000 0.500000 0.500000
0.003746 -0.036953 0.478769 0.000000 0.500000 0.500000
-0.002968 0.033944 -0.364549 0.600000 0.000000 0.300000
0.077185 -0.036953 0.595572 0.000000 0.500000 0.500000
-0.326329 -0.002809 0.222828 0.300000 0.600000 0.000000
-0.477162 0.017020 0.205730 0.300000 0.600000 0.000000
0.011451 -0.003051 -0.168702 0.600000 0.000000 0.300000
-0.274512 -0.003051 0.164474 0.300000 0.600000 0.000000
0.067369 -0.000783 -0.223836 0.600000 0.000000 0.300000
-0.430772 -0.000348 -0.104713 0.500000 0.000000 0.500000
-0.022802 0.017003 -0.166648 0.600000 0.000000 0.300000
0.050729 -0.019974 -0.382840 0.600000 0.000000 0.300000
-0.011684 0.015259 -0.461779 0.600000 0.000000 0.300000
0.392511 -0.020105 -0.572680 0.600000 0.000000 0.300000
0.448993 -0.036953 0.394271 0.000000 0.500000 0.500000
-0.543157 0.002376 0.285202 0.300000 0.600000 0.000000
-0.101186 -0.006082 -0.092082 0.500000 0.000000 0.500000
0.108614 -0.019974 -0.338490 0.600000 0.000000 0.300000
0.124025 0.018231 -0.619028 0.600000 0.000000 0.300000
0.376806 -0.013488 -0.642153 0.600000 0.000000 0.300000
0.014260 0.016417 -0.183921 0.600000 0.000000 0.300000
-0.011803 0.014078 -0.265947 0.600000 0.000000 0.300000
0.386247 0.016965 0.354963 0.000000 0.500000 0.500000
-0.199041 -0.016326 0.036629 0.500000 0.000000 0.500000
-0.007825 -0.025905 0.189858 0.000000 0.500000 0.500000
0.265179 -0.040198 0.254689 0.000000 0.500000 0.500000
-0.069399 -0.018323 -0.037768 0.500000 0.000000 0.500000
0.297201 -0.003952 -0.157553 0.600000 0.000000 0.300000
0.036042 0.016965 0.504288 0.000000 0.500000 0.500000
-0.378560 -0.018258 -0.190220 0.500000 0.000000 0.500000
-0.091894 -0.001564 0.162696 0.300000 0.600000 0.000000
0.125382 0.029065 0.224451 0.000000 0.500000 0.500000
-0.152651 0.033944 0.053884 0.500000 0.500000 0.000000
0.169883 -0.019974 -0.209190 0.600000 0.000000 0.300000
-0.254222 0.017020 0.127946 0.300000 0.600000 0.000000
-0.815990 0.009912 0.358633 0.300000 0.600000 0.000000
-0.061184 -0.021368 0.231720 0.000000 0.500000 0.500000
-0.622893 -0.000354 -0.235940 0.500000 0.000000 0.500000
-0.368302 -0.003051 0.154303 0.300000 0.600000 0.000000
0.414439 -0.022159 0.328363 0.000000 0.500000 0.500000
-0.516915 -0.001314 -0.156570 0.500000 0.000000 0.500000
-0.768680 0.003302 0.345815 0.300000 0.600000 0.000000
0.186737 0.015971 -0.102400 0.600000 0.000000 0.300000
-0.435514 -0.000361 -0.194151 0.500000 0.000000 0.500000
0.233712 -0.042477 0.249011 0.000000 0.500000 0.500000
-0.599258 0.000632 -0.249803 0.500000 0.000000 0.500000
0.079212 -0.009703 0.175905 0.000000 0.500000 0.500000
0.256051 -0.008861 -0.242679 0.600000 0.000000 0.300000
0.078675 -0.009652 0.202824 0.000000 0.500000 0.500000
0.266011 -0.036953 0.281630 0.000000 0.500000 0.500000
0.361778 0.033944 -0.318687 0.600000 0.000000 0.300000
-0.605630 0.017020 0.235890 0.300000 0.600000 0.000000
0.296722 -0.018569 0.665133 0.000000 0.500000 0.500000
0.104145 0.033944 -0.367790 0.600000 0.000000 0.300000
0.187122 0.033944 -0.240434 0.600000 0.000000 0.300000
-0.025410 -0.018275 0.092104 0.000000 0.500000 0.500000
-0.148053 0.030682 -0.021255 0.500000 0.500000 0.000000
-0.345155 -0.006787 -0.033528 0.500000 0.000000 0.500000
0.004291 0.016965 0.305916 0.000000 0.500000 0.500000
0.345532 0.021126 -0.659107 0.600000 0.000000 0.300000
-0.414213 0.002024 0.250113 0.300000 0.600000 0.000000
0.252036 -0.018437 -0.669910 0.600000 0.000000 0.300000
0.236810 -0.006692 -0.616828 0.600000 0.000000 0.300000
0.024984 -0.036953 0.366551 0.000000 0.500000 0.500000
0.420764 -0.036953 0.409260 0.000000 0.500000 0.500000
0.055887 0.033944 -0.516044 0.600000 0.000000 0.300000
0.077771 0.022271 -0.218671 0.600000 0.000000 0.300000
0.385350 -0.019976 -0.241498 0.600000 0.000000 0.300000
0.426780 0.005859 0.576764 0.000000 0.500000 0.500000
0.068900 -0.036953 0.486302 0.000000 0.500000 0.500000
-0.032923 -0.005987 0.388851 0.000000 0.500000 0.500000
-0.192166 -0.017601 0.066317 0.500000 0.000000 0.500000
0.048164 -0.036953 0.241278 0.000000 0.500000 0.500000
-0.070111 -0.016315 -0.000425 0.500000 0.000000 0.500000
-0.404674 -0.003051 0.191676 0.300000 0.600000 0.000000
-0.476010 -0.018318 -0.146748 0.500000 0.000000 0.500000
0.340425 0.016965 0.301860 0.000000 0.500000 0.500000
0.060267 0.016281 -0.213957 0.600000 0.000000 0.300000
0.438829 0.016965 0.408516 0.000000 0.500000 0.500000
0.061786 0.033944 -0.397493 0.600000 0.000000 0.300000
-0.214158 -0.000333 0.013873 0.500000 0.000000 0.500000
-0.310163 0.017020 0.154770 0.300000 0.600000 0.000000
-0.089540 0.017020 0.126704 0.300000 0.600000 0.000000
-0.739566 -0.003051 0.310156 0.300000 0.600000 0.000000
-0.306593 0.017020 0.133157 0.300000 0.600000 0.000000
-0.178838 0.016020 -0.003752 0.300000 0.600000 0.000000
-0.009560 -0.002984 -0.044189 0.300000 0.600000 0.000000
0.259627 -0.019974 -0.232323 0.600000 0.000000 0.300000
0.360491 0.002998 0.290130 0.000000 0.500000 0.500000
-0.419655 -0.003051 0.213084 0.300000 0.600000 0.000000
0.348317 0.005699 0.282542 0.000000 0.500000 0.500000
0.129796 -0.036953 0.315249 0.000000 0.500000 0.500000
0.027969 0.001212 0.143926 0.000000 0.500000 0.500000
0.207781 -0.036953 0.296010 0.000000 0.500000 0.500000
0.439739 -0.018283 0.368141 0.000000 0.500000 0.500000
-0.196680 0.017020 0.155376 0.300000 0.600000 0.000000
0.458586 0.033944 -0.415793 0.600000 0.000000 0.300000
-0.314245 0.017003 0.214482 0.300000 0.600000 0.000000
0.147090 -0.000904 -0.570962 0.600000 0.000000 0.300000
0.286477 0.033944 -0.297628 0.600000 0.000000 0.300000
-0.028583 0.000699 0.132403 0.000000 0.500000 0.500000
0.321697 0.018427 -0.665580 0.600000 0.000000 0.300000
-0.226334 -0.000322 -0.027139 0.500000 0.000000 0.500000
0.262366 -0.020374 -0.659627 0.600000 0.000000 0.300000
0.141222 -0.021761 0.582721 0.000000 0.500000 0.500000
0.022200 -0.015545 -0.154072 0.600000 0.000000 0.300000
0.249193 0.033944 -0.630031 0.600000 0.000000 0.300000
0.187517 0.033944 -0.168790 0.600000 0.000000 0.300000
-0.024577 0.017020 -0.200428 0.600000 0.000000 0.300000
-0.286717 0.000638 -0.123273 0.500000 0.000000 0.500000
0.148268 -0.019974 -0.241818 0.600000 0.000000 0.300000
0.221144 -0.036953 0.623664 0.000000 0.500000 0.500000
-0.035399 0.017020 -0.090930 0.600000 0.000000 0.300000
0.150235 0.012524 -0.340328 0.600000 0.000000 0.300000
0.186771 0.015542 -0.599965 0.600000 0.000000 0.300000
0.277761 -0.018243 0.248278 0.000000 0.500000 0.500000
-0.074430 -0.018300 0.014328 0.500000 0.000000 0.500000
0.233510 0.026062 0.248975 0.000000 0.500000 0.500000
0.188103 -0.042827 0.239958 0.000000 0.500000 0.500000
0.152045 -0.019974 -0.184287 0.600000 0.000000 0.300000
0.031391 0.016965 0.539780 0.000000 0.500000 0.500000
-0.102051 -0.016296 0.070674 0.500000 0.000000 0.500000
0.417766 -0.014252 -0.609546 0.600000 0.000000 0.300000
0.138795 -0.042827 0.195072 0.000000 0.500000 0.500000
0.419781 0.002380 -0.480568 0.600000 0.000000 0.300000
-0.308112 0.000649 -0.105595 0.500000 0.000000 0.500000
0.324338 -0.025204 0.319354 0.000000 0.500000 0.500000
0.338106 0.016965 0.637520 0.000000 0.500000 0.500000
-0.261216 0.017020 0.169574 0.300000 0.600000 0.000000
-0.142877 -0.016333 -0.067829 0.500000 0.000000 0.500000
0.154590 -0.042827 0.237872 0.000000 0.500000 0.500000
0.353247 -0.019974 -0.242299 0.600000 0.000000 0.300000
0.245044 -0.036953 0.265030 0.000000 0.500000 0.500000
-0.337330 -0.003051 0.176742 0.300000 0.600000 0.000000
0.094987 0.033944 -0.517938 0.600000 0.000000 0.300000
-0.079906 -0.018321 0.119318 0.000000 0.500000 0.500000
-0.218942 -0.000424 -0.136267 0.500000 0.000000 0.500000
0.254859 -0.013895 0.245208 0.000000 0.500000 0.500000
-0.489336 0.016286 0.150880 0.300000 0.600000 0.000000
0.277998 0.033944 -0.630863 0.600000 0.000000 0.300000
-0.125232 -0.000357 -0.073019 0.500000 0.000000 0.500000
-0.006761 0.000680 0.076228 0.000000 0.500000 0.500000
-0.469540 -0.000342 -0.146708 0.500000 0.000000 0.500000
0.394854 0.008954 0.521564 0.000000 0.500000 0.500000
-0.034659 -0.009957 0.291862 0.000000 0.500000 0.500000
-0.366858 0.000649 -0.125983 0.500000 0.000000 0.500000
-0.077754 0.016762 -0.018959 0.300000 0.600000 0.000000
0.211376 -0.010894 0.617837 0.000000 0.500000 0.500000
0.267116 -0.019974 -0.259572 0.600000 0.000000 0.300000
-0.013301 0.016965 0.226315 0.000000 0.500000 0.500000
0.133938 -0.036953 0.625455 0.000000 0.500000 0.500000
0.042743 0.017020 -0.222843 0.600000 0.000000 0.300000
-0.060853 0.016965 0.219947 0.000000 0.500000 0.500000
-0.265122 0.017020 0.113544 0.300000 0.600000 0.000000
0.076476 0.005578 0.200203 0.000000 0.500000 0.500000
0.429176 -0.020060 -0.434685 0.600000 0.000000 0.300000
0.345510 0.033944 -0.215898 0.600000 0.000000 0.300000
0.045556 0.016965 0.379595 0.000000 0.500000 0.500000
-0.340010 -0.015685 -0.180355 0.500000 0.000000 0.500000
-0.414551 -0.000338 -0.130990 0.500000 0.000000 0.500000
0.156174 -0.002824 0.243125 0.000000 0.500000 0.500000
0.139413 -0.017782 -0.351379 0.600000 0.000000 0.300000
-0.547890 0.000634 -0.226855 0.500000 0.000000 0.500000
0.406210 -0.038398 -0.609627 0.600000 0.000000 0.300000
0.432435 0.016965 0.378834 0.000000 0.500000 0.500000
0.397642 -0.000906 -0.252286 0.600000 0.000000 0.300000
-0.120161 -0.018337 -0.086997 0.500000 0.000000 0.500000
0.061696 -0.012037 0.195474 0.000000 0.500000 0.500000
-0.138166 -0.018306 -0.023013 0.500000 0.000000 0.500000
0.433752 0.033944 -0.432252 0.600000 0.000000 0.300000
-0.087532 0.016506 -0.092859 0.600000 0.000000 0.300000
0.038845 0.033944 -0.332615 0.600000 0.000000 0.300000
-0.481597 -0.003051 0.250571 0.300000 0.600000 0.000000
0.051443 -0.019974 -0.405332 0.600000 0.000000 0.300000
0.421666 0.033944 -0.363250 0.600000 0.000000 0.300000
0.354776 0.015340 -0.326473 0.600000 0.000000 0.300000
0.151203 -0.019207 0.330504 0.000000 0.500000 0.500000
-0.433398 0.017020 0.207762 0.300000 0.600000 0.000000
-0.065363 0.027492 -0.245395 0.600000 0.000000 0.300000
0.154040 0.016965 0.275461 0.000000 0.500000 0.500000
0.109278 0.016965 0.272955 0.000000 0.500000 0.500000
0.280195 0.033944 -0.220959 0.600000 0.000000 0.300000
-0.016592 0.012980 -0.434616 0.600000 0.000000 0.300000
-0.835813 -0.003001 0.358047 0.300000 0.600000 0.000000
0.008203 -0.022447 0.216529 0.000000 0.500000 0.500000
-0.141381 0.033412 0.067650 0.500000 0.500000 0.000000
0.444237 -0.035938 0.377054 0.000000 0.500000 0.500000
0.028209 0.016965 0.255909 0.000000 0.500000 0.500000
0.053729 0.022809 -0.564155 0.600000 0.000000 0.300000
0.331681 0.016449 -0.313459 0.600000 0.000000 0.300000
0.126909 -0.019974 -0.144997 0.600000 0.000000 0.300000
-0.391839 0.014314 0.093715 0.300000 0.600000 0.000000
0.103443 -0.019974 -0.128313 0.600000 0.000000 0.300000
-0.696074 0.016906 0.319124 0.300000 0.600000 0.000000
-0.247289 0.016020 0.029386 0.300000 0.600000 0.000000
-0.679368 0.017020 0.273207 0.300000 0.600000 0.000000
0.041096 -0.016275 0.132290 0.000000 0.500000 0.500000
0.335196 0.010851 -0.264489 0.600000 0.000000 0.300000
-0.171293 -0.016329 -0.069387 0.500000 0.000000 0.500000
0.384091 0.005447 -0.285996 0.600000 0.000000 0.300000
0.090971 0.016965 0.505040 0.000000 0.500000 0.500000
0.052983 -0.002170 -0.229709 0.600000 0.000000 0.300000
0.425465 0.016965 0.503814 0.000000 0.500000 0.500000
0.176491 -0.024349 0.605758 0.000000 0.500000 0.500000
-0.228926 0.015654 0.008115 0.300000 0.600000 0.000000
0.059734 -0.014636 0.580528 0.000000 0.500000 0.500000
-0.018246 0.023833 -0.385990 0.600000 0.000000 0.300000
0.420955 -0.019976 -0.474376 0.600000 0.000000 0.300000
-0.048590 -0.000352 0.156285 0.000000 0.500000 0.500000
0.420388 0.001788 -0.439493 0.600000 0.000000 0.300000
-0.160746 0.000664 -0.018675 0.500000 0.000000 0.500000
-0.014611 -0.010294 0.223630 0.000000 0.500000 0.500000
0.334425 -0.036953 0.281473 0.000000 0.500000 0.500000
0.452831 -0.020308 -0.422238 0.600000 0.000000 0.300000
0.294066 0.021585 -0.300380 0.600000 0.000000 0.300000
0.021709 0.016965 0.206168 0.000000 0.500000 0.500000
0.340082 -0.019974 -0.230668 0.600000 0.000000 0.300000
-0.003653 0.033944 -0.311492 0.600000 0.000000 0.300000
0.019647 0.033944 -0.444422 0.600000 0.000000 0.300000
0.122991 -0.019974 -0.210841 0.600000 0.000000 0.300000
0.319660 0.019900 -0.306951 0.600000 0.000000 0.300000
-0.045171 -0.036953 0.233000 0.000000 0.500000 0.500000
0.120292 -0.032875 0.187757 0.000000 0.500000 0.500000
-0.263971 0.005546 0.210039 0.300000 0.600000 0.000000
0.461188 -0.028207 0.476914 0.000000 0.500000 0.500000
-0.279050 -0.013475 0.009528 0.500000 0.000000 0.500000
-0.053852 -0.018322 -0.027685 0.500000 0.000000 0.500000
-0.365049 0.000658 -0.106093 0.500000 0.000000 0.500000
0.296923 -0.038309 -0.654173 0.600000 0.000000 0.300000
-0.517687 0.012752 0.278477 0.300000 0.600000 0.000000
0.158104 0.016757 0.647917 0.000000 0.500000 0.500000
0.475646 -0.003576 -0.448489 0.600000 0.000000 0.300000
-0.494966 -0.018325 -0.193415 0.500000 0.000000 0.500000
0.101607 0.018154 -0.485626 0.600000 0.000000 0.300000
-0.080164 0.033944 0.007115 0.500000 0.500000 0.000000
0.392480 -0.023008 0.393984 0.000000 0.500000 0.500000
0.077085 -0.036953 0.323611 0.000000 0.500000 0.500000
-0.593650 0.017019 0.289512 0.300000 0.600000 0.000000
0.095267 0.033944 -0.483470 0.600000 0.000000 0.300000
0.449957 -0.020327 -0.519239 0.600000 0.000000 0.300000
-0.016930 -0.016838 0.123068 0.000000 0.500000 0.500000
-0.362565 -0.016334 -0.062615 0.500000 0.000000 0.500000
-0.788393 -0.016405 -0.340556 0.500000 0.000000 0.500000
0.265110 0.000951 -0.617587 0.600000 0.000000 0.300000
-0.307820 -0.008080 -0.169047 0.500000 0.000000 0.500000
-0.186364 -0.003051 0.138893 0.300000 0.600000 0.000000
-0.243139 -0.003051 0.043931 0.300000 0.600000 0.000000
-0.204944 -0.000347 -0.077144 0.500000 0.000000 0.500000
-0.163119 0.000676 0.009761 0.500000 0.000000 0.500000
-0.201197 -0.003051 0.147567 0.300000 0.600000 0.000000
-0.531349 -0.017344 -0.233215 0.500000 0.000000 0.500000
0.005862 0.000689 0.101183 0.000000 0.500000 0.500000
0.314141 -0.025973 -0.667516 0.600000 0.000000 0.300000
0.302168 0.033944 -0.203614 0.600000 0.000000 0.300000
-0.216833 -0.018335 -0.115238 0.500000 0.000000 0.500000
0.006371 -0.003051 -0.203281 0.600000 0.000000 0.300000
-0.633120 -0.016344 -0.232303 0.500000 0.000000 0.500000
-0.038106 -0.000355 -0.037647 0.000000 0.500000 0.500000
0.248970 -0.004462 0.670128 0.000000 0.500000 0.500000
0.142677 0.029065 0.216982 0.000000 0.500000 0.500000
-0.477183 -0.003051 0.159020 0.300000 0.600000 0.000000
0.196249 -0.042827 0.223045 0.000000 0.500000 0.500000
0.053324 -0.036953 0.306636 0.000000 0.500000 0.500000
0.365266 -0.000545 0.635852 0.000000 0.500000 0.500000
0.361725 -0.038456 -0.648773 0.600000 0.000000 0.300000
-0.039326 -0.016309 0.025643 0.000000 0.500000 0.500000
0.442673 0.016965 0.508997 0.000000 0.500000 0.500000
0.199684 0.021091 -0.654337 0.600000 0.000000 0.300000
0.391352 0.016965 0.599419 0.000000 0.500000 0.500000
0.140262 -0.003129 -0.627385 0.600000 0.000000 0.300000
0.347567 0.002165 0.584759 0.000000 0.500000 0.500000
0.051119 -0.036953 0.407964 0.000000 0.500000 0.500000
-0.235224 -0.000345 -0.083966 0.500000 0.000000 0.500000
0.066955 -0.019974 -0.166976 0.600000 0.000000 0.300000
-0.552971 -0.017344 -0.239725 0.500000 0.000000 0.500000
0.445075 -0.007544 -0.574117 0.600000 0.000000 0.300000
-0.146343 -0.003051 0.143600 0.300000 0.600000 0.000000
-0.035954 0.000878 0.092000 0.000000 0.500000 0.500000
0.331387 0.002813 -0.171296 0.600000 0.000000 0.300000
-0.142064 -0.016302 0.049745 0.500000 0.000000 0.500000
-0.163445 0.015971 0.042444 0.500000 0.500000 0.000000
0.019314 -0.021949 0.207349 0.000000 0.500000 0.500000
-0.538113 -0.016611 -0.186313 0.500000 0.000000 0.500000
-0.085265 0.033944 -0.012082 0.500000 0.500000 0.000000
0.089369 0.033944 -0.465388 0.600000 0.000000 0.300000
-0.003498 0.016965 0.356733 0.000000 0.500000 0.500000
-0.002714 0.016965 0.265803 0.000000 0.500000 0.500000
-0.274098 -0.016324 -0.095554 0.500000 0.000000 0.500000
0.291132 -0.019974 -0.258056 0.600000 0.000000 0.300000
0.190149 -0.041092 0.207911 0.000000 0.500000 0.500000
0.073955 -0.019974 -0.193728 0.600000 0.000000 0.300000
0.293381 -0.042827 0.245417 0.000000 0.500000 0.500000
-0.006134 -0.036953 0.217095 0.000000 0.500000 0.500000
0.410058 -0.007232 0.324178 0.000000 0.500000 0.500000
-0.217246 -0.016318 -0.059727 0.500000 0.000000 0.500000
-0.242180 0.017020 0.153594 0.300000 0.600000 0.000000
0.408199 0.031513 -0.310441 0.600000 0.000000 0.300000
-0.439138 0.014018 0.257147 0.300000 0.600000 0.000000
0.383296 0.033944 -0.303037 0.600000 0.000000 0.300000
0.032881 -0.003051 -0.212574 0.600000 0.000000 0.300000
0.407447 -0.003039 0.456193 0.000000 0.500000 0.500000
0.244369 -0.028073 0.250934 0.000000 0.500000 0.500000
-0.111277 -0.003051 0.129821 0.300000 0.600000 0.000000
-0.543195 -0.001080 -0.165152 0.500000 0.000000 0.500000
-0.514461 0.014518 0.160596 0.300000 0.600000 0.000000
-0.319680 -0.018339 -0.163843 0.500000 0.000000 0.500000
0.240056 0.033060 -0.297086 0.600000 0.000000 0.300000
0.448990 -0.036953 0.521919 0.000000 0.500000 0.500000
-0.293584 -0.016335 -0.015893 0.500000 0.000000 0.500000
0.038820 0.019986 -0.546098 0.600000 0.000000 0.300000
0.138364 0.028595 -0.562416 0.600000 0.000000 0.300000
0.338004 -0.012812 0.276114 0.000000 0.500000 0.500000
0.413797 0.033944 -0.549654 0.600000 0.000000 0.300000
0.381865 0.033944 -0.638240 0.600000 0.000000 0.300000
0.059099 -0.002973 0.141094 0.000000 0.500000 0.500000
0.238154 0.021590 0.221760 0.000000 0.500000 0.500000
-0.462870 0.014202 0.263282 0.300000 0.600000 0.000000
0.058016 -0.010528 -0.171518 0.600000 0.000000 0.300000
0.233079 -0.024032 0.299482 0.000000 0.500000 0.500000
-0.018812 -0.036953 0.209428 0.000000 0.500000 0.500000
0.065153 -0.000970 0.585576 0.000000 0.500000 0.500000
0.293837 -0.019974 -0.192572 0.600000 0.000000 0.300000
-0.506428 -0.017343 -0.221331 0.500000 0.000000 0.500000
-0.003257 -0.019974 -0.295981 0.600000 0.000000 0.300000
0.090604 0.016965 0.562216 0.000000 0.500000 0.500000
0.297570 0.021512 -0.613328 0.600000 0.000000 0.300000
0.175160 -0.000298 0.242476 0.000000 0.500000 0.500000
0.190237 0.016965 0.622527 0.000000 0.500000 0.500000
0.005260 -0.019974 -0.423408 0.600000 0.000000 0.300000
0.395524 -0.038189 -0.587592 0.600000 0.000000 0.300000
0.395341 0.016783 0.399876 0.000000 0.500000 0.500000
-0.059883 0.015753 0.093657 0.300000 0.600000 0.000000
0.280709 0.022916 0.234037 0.000000 0.500000 0.500000
-0.143495 -0.016327 -0.053524 0.500000 0.000000 0.500000
-0.059194 0.033944 -0.216504 0.600000 0.000000 0.300000
0.159183 0.032482 -0.331191 0.600000 0.000000 0.300000
-0.067417 -0.019974 -0.210410 0.600000 0.000000 0.300000
-0.001592 -0.019974 -0.381189 0.600000 0.000000 0.300000
0.251206 -0.016036 0.621371 0.000000 0.500000 0.500000
0.130472 -0.036953 0.299095 0.000000 0.500000 0.500000
0.299174 0.023396 -0.253774 0.600000 0.000000 0.300000
-0.135574 0.017020 0.053233 0.300000 0.600000 0.000000
0.119495 0.016965 0.348872 0.000000 0.500000 0.500000
-0.630691 0.016972 0.232896 0.300000 0.600000 0.000000
0.073685 -0.006736 -0.208736 0.600000 0.000000 0.300000
-0.042733 -0.000311 0.104096 0.000000 0.500000 0.500000
0.335777 0.033944 -0.173098 0.600000 0.000000 0.300000
-0.719452 -0.000474 -0.304831 0.500000 0.000000 0.500000
0.377867 -0.006056 -0.348030 0.600000 0.000000 0.300000
0.225720 -0.015136 0.667089 0.000000 0.500000 0.500000
-0.022018 0.016426 -0.040702 0.300000 0.600000 0.000000
-0.353451 -0.018329 -0.152256 0.500000 0.000000 0.500000
-0.199561 -0.018319 -0.073650 0.500000 0.000000 0.500000
-0.472399 -0.004170 -0.117839 0.500000 0.000000 0.500000
-0.483062 -0.017343 -0.213399 0.500000 0.000000 0.500000
0.105518 -0.020001 -0.499633 0.600000 0.000000 0.300000
0.180732 -0.020380 -0.634761 0.600000 0.000000 0.300000
0.326439 0.016965 0.308341 0.000000 0.500000 0.500000
0.309552 0.033944 -0.262986 0.600000 0.000000 0.300000
-0.099393 -0.016312 -0.004020 0.500000 0.000000 0.500000
0.107662 0.033944 -0.211951 0.600000 0.000000 0.300000
0.417759 0.020062 -0.425237 0.600000 0.000000 0.300000
0.380464 0.002638 0.370100 0.000000 0.500000 0.500000
0.303454 -0.005500 -0.670373 0.600000 0.000000 0.300000
0.096590 0.006657 -0.599723 0.600000 0.000000 0.300000
-0.041517 0.033944 -0.268884 0.600000 0.000000 0.300000
-0.378722 -0.003051 0.101251 0.300000 0.600000 0.000000
0.191091 -0.013361 -0.114898 0.600000 0.000000 0.300000
0.420734 0.033944 -0.579011 0.600000 0.000000 0.300000
0.026348 -0.036953 0.410905 0.000000 0.500000 0.500000
-0.622089 -0.003051 0.264166 0.300000 0.600000 0.000000
0.303666 0.016965 0.271672 0.000000 0.500000 0.500000
0.214200 0.033944 -0.229093 0.600000 0.000000 0.300000
0.417213 -0.020485 -0.333584 0.600000 0.000000 0.300000
0.195934 -0.019974 -0.220529 0.600000 0.000000 0.300000
0.461256 -0.008788 0.472045 0.000000 0.500000 0.500000
0.166711 0.016965 0.617213 0.000000 0.500000 0.500000
-0.240854 0.017020 0.189361 0.300000 0.600000 0.000000
-0.037834 -0.003051 -0.083521 0.600000 0.000000 0.300000
-0.013393 -0.003051 -0.150615 0.600000 0.000000 0.300000
-0.022890 -0.003051 -0.256910 0.600000 0.000000 0.300000
0.042991 0.033944 -0.508948 0.600000 0.000000 0.300000
-0.119894 0.033944 0.055610 0.500000 0.500000 0.000000
0.399324 0.033944 -0.619920 0.600000 0.000000 0.300000
0.150364 -0.019974 -0.101476 0.600000 0.000000 0.300000
-0.131110 -0.016302 0.007253 0.500000 0.000000 0.500000
0.368276 -0.020619 -0.662932 0.600000 0.000000 0.300000
0.368958 0.001977 0.356816 0.000000 0.500000 0.500000
-0.123266 0.024186 -0.032028 0.500000 0.500000 0.000000
-0.595523 -0.018330 -0.240619 0.500000 0.000000 0.500000
0.167211 -0.017582 0.201293 0.000000 0.500000 0.500000
-0.549132 0.014671 0.180167 0.300000 0.600000 0.000000
-0.558635 0.017020 0.256860 0.300000 0.600000 0.000000
0.282733 0.019653 -0.617403 0.600000 0.000000 0.300000
0.282603 0.033944 -0.265345 0.600000 0.000000 0.300000
-0.361915 0.000641 -0.143691 0.500000 0.000000 0.500000
-0.312905 -0.001380 0.221098 0.300000 0.600000 0.000000
0.025197 -0.003051 -0.165337 0.600000 0.000000 0.300000
0.396302 -0.036953 0.600354 0.000000 0.500000 0.500000
-0.905974 0.013512 0.375125 0.300000 0.600000 0.000000
-0.018861 0.016965 0.359665 0.000000 0.500000 0.500000
0.457619 -0.013985 0.502139 0.000000 0.500000 0.500000
0.203008 0.025107 -0.119688 0.600000 0.000000 0.300000
0.178198 0.009438 -0.238013 0.600000 0.000000 0.300000
0.328817 0.033944 -0.197811 0.600000 0.000000 0.300000
0.252095 0.016965 0.273098 0.000000 0.500000 0.500000
-0.141436 0.000680 0.027354 0.500000 0.000000 0.500000
-0.015604 -0.000344 0.196686 0.000000 0.500000 0.500000
-0.433681 -0.016086 -0.213850 0.500000 0.000000 0.500000
0.170863 -0.020143 -0.607445 0.600000 0.000000 0.300000
0.012618 -0.003051 -0.188388 0.600000 0.000000 0.300000
0.268484 -0.014219 0.619302 0.000000 0.500000 0.500000
0.099825 0.026597 -0.458562 0.600000 0.000000 0.300000
0.379748 0.008210 -0.190737 0.600000 0.000000 0.300000
-0.463743 -0.003051 0.186180 0.300000 0.600000 0.000000
0.228241 0.024545 -0.239987 0.600000 0.000000 0.300000
0.004718 -0.016308 0.040697 0.000000 0.500000 0.500000
0.204749 0.033944 -0.155582 0.600000 0.000000 0.300000
0.004740 -0.000531 0.018731 0.000000 0.500000 0.500000
0.194073 -0.021371 0.661880 0.000000 0.500000 0.500000
0.051952 0.016965 0.317610 0.000000 0.500000 0.500000
0.472405 0.033944 -0.448527 0.600000 0.000000 0.300000
-0.160996 0.018152 0.008653 0.500000 0.500000 0.000000
-0.171874 0.016817 0.027133 0.300000 0.600000 0.000000
0.383364 0.022135 -0.353413 0.600000 0.000000 0.300000
0.446520 0.016176 -0.356838 0.600000 0.000000 0.300000
0.254910 -0.020112 -0.632341 0.600000 0.000000 0.300000
-0.423864 -0.016335 -0.171645 0.500000 0.000000 0.500000
0.459511 -0.019070 0.428957 0.000000 0.500000 0.500000
-0.526609 -0.003051 0.207361 0.300000 0.600000 0.000000
-0.408563 0.016696 0.136380 0.300000 0.600000 0.000000
0.103377 -0.002356 0.532904 0.000000 0.500000 0.500000
-0.015770 0.001034 0.151895 0.000000 0.500000 0.500000
-0.519844 0.017020 0.199614 0.300000 0.600000 0.000000
0.170118 0.003275 0.602285 0.000000 0.500000 0.500000
-0.136513 -0.000319 0.014647 0.500000 0.000000 0.500000
0.102847 -0.019974 -0.604320 0.600000 0.000000 0.300000
-0.076580 -0.003051 -0.158697 0.600000 0.000000 0.300000
0.112508 -0.017270 -0.392666 0.600000 0.000000 0.300000
0.341892 -0.015259 0.649658 0.000000 0.500000 0.500000
-0.610420 0.010638 0.212061 0.300000 0.600000 0.000000
0.141601 -0.009806 0.193905 0.000000 0.500000 0.500000
-0.025613 0.032088 -0.323409 0.600000 0.000000 0.300000
0.380601 0.016965 0.320905 0.000000 0.500000 0.500000
0.221326 0.016965 0.240252 0.000000 0.500000 0.500000
0.086405 -0.000733 0.448870 0.000000 0.500000 0.500000
0.008979 -0.036953 0.202556 0.000000 0.500000 0.500000
0.289870 -0.002002 -0.146378 0.600000 0.000000 0.300000
0.099650 0.026914 -0.437661 0.600000 0.000000 0.300000
-0.340005 -0.016316 -0.099152 0.500000 0.000000 0.500000
0.262926 0.033944 -0.261358 0.600000 0.000000 0.300000
-0.026484 -0.018578 0.447520 0.000000 0.500000 0.500000
0.056224 0.016965 0.237993 0.000000 0.500000 0.500000
0.081566 -0.020010 -0.481710 0.600000 0.000000 0.300000
0.126484 -0.013179 -0.546215 0.600000 0.000000 0.300000
-0.219966 -0.018321 -0.086061 0.500000 0.000000 0.500000
0.401868 -0.018383 -0.624011 0.600000 0.000000 0.300000
0.048769 -0.035114 0.570313 0.000000 0.500000 0.500000
0.075612 0.016965 0.365593 0.000000 0.500000 0.500000
0.102849 -0.019974 -0.562342 0.600000 0.000000 0.300000
-0.180243 -0.016314 -0.038369 0.500000 0.000000 0.500000
0.071132 -0.019974 -0.539686 0.600000 0.000000 0.300000
-0.457534 0.017020 0.192184 0.300000 0.600000 0.000000
-0.279485 -0.016332 -0.115889 0.500000 0.000000 0.500000
0.065580 -0.019974 -0.323363 0.600000 0.000000 0.300000
0.427922 -0.010013 0.344725 0.000000 0.500000 0.500000
0.015730 0.033944 -0.327604 0.600000 0.000000 0.300000
-0.181134 -0.003051 0.073369 0.300000 0.600000 0.000000
-0.202698 0.017020 0.071701 0.300000 0.600000 0.000000
0.146940 -0.019974 -0.197826 0.600000 0.000000 0.300000
0.110305 0.027968 0.248481 0.000000 0.500000 0.500000
0.121215 0.033944 -0.261519 0.600000 0.000000 0.300000
0.099047 0.016965 0.550063 0.000000 0.500000 0.500000
-0.070579 0.016872 -0.198589 0.600000 0.000000 0.300000
-0.470965 0.013201 0.135737 0.300000 0.600000 0.000000
-0.276037 -0.018315 -0.017439 0.500000 0.000000 0.500000
0.109465 0.020492 -0.513772 0.600000 0.000000 0.300000
0.269592 0.016965 0.295018 0.000000 0.500000 0.500000
0.193743 0.033944 -0.289605 0.600000 0.000000 0.300000
-0.368786 0.017020 0.158233 0.300000 0.600000 0.000000
0.093045 0.013938 0.247902 0.000000 0.500000 0.500000
0.122106 0.017868 0.245064 0.000000 0.500000 0.500000
0.076893 0.016965 0.576634 0.000000 0.500000 0.500000
-0.379856 -0.016337 -0.164008 0.500000 0.000000 0.500000
-0.488826 0.001076 -0.161399 0.500000 0.000000 0.500000
-0.636080 0.015086 0.308990 0.300000 0.600000 0.000000
-0.858739 0.013840 0.348889 0.300000 0.600000 0.000000
0.364133 -0.019974 -0.205484 0.600000 0.000000 0.300000
-0.053739 -0.016284 0.078136 0.000000 0.500000 0.500000
0.416291 0.012620 -0.610888 0.600000 0.000000 0.300000
-0.202579 0.000654 0.026907 0.500000 0.000000 0.500000
0.101331 0.029065 0.234290 0.000000 0.500000 0.500000
-0.001094 -0.013485 -0.031560 0.000000 0.500000 0.500000
0.234978 -0.013860 -0.240639 0.600000 0.000000 0.300000
-0.033629 -0.019974 -0.220922 0.600000 0.000000 0.300000
-0.124332 0.016666 0.020646 0.300000 0.600000 0.000000
0.188253 0.012127 0.242029 0.000000 0.500000 0.500000
-0.415381 -0.016373 -0.193788 0.500000 0.000000 0.500000
-0.667497 -0.016768 -0.263292 0.500000 0.000000 0.500000
-0.317445 -0.003051 0.196748 0.300000 0.600000 0.000000
-0.227488 -0.000336 -0.058509 0.500000 0.000000 0.500000
0.457329 -0.020314 -0.449979 0.600000 0.000000 0.300000
-0.048717 0.016271 -0.069419 0.600000 0.000000 0.300000
0.449378 -0.010039 -0.360840 0.600000 0.000000 0.300000
0.180719 -0.036953 0.305783 0.000000 0.500000 0.500000
0.261833 -0.000970 0.668782 0.000000 0.500000 0.500000
-0.190523 -0.002406 -0.014240 0.300000 0.600000 0.000000
-0.007557 -0.019815 0.497732 0.000000 0.500000 0.500000
0.041192 0.016965 0.399628 0.000000 0.500000 0.500000
-0.214402 0.000635 -0.103758 0.500000 0.000000 0.500000
0.045333 -0.002738 0.567112 0.000000 0.500000 0.500000
-0.392532 0.017020 0.207098 0.300000 0.600000 0.000000
0.096790 -0.029806 0.252394 0.000000 0.500000 0.500000
0.155980 -0.017470 0.243131 0.000000 0.500000 0.500000
0.441125 -0.020495 -0.546973 0.600000 0.000000 0.300000
-0.006116 -0.018292 0.058870 0.000000 0.500000 0.500000
0.084736 0.013573 0.220272 0.000000 0.500000 0.500000
0.091051 -0.016424 0.179321 0.000000 0.500000 0.500000
0.015241 -0.036953 0.332134 0.000000 0.500000 0.500000
0.166582 -0.036953 0.647244 0.000000 0.500000 0.500000
0.054113 -0.016491 0.160543 0.000000 0.500000 0.500000
-0.569884 0.017020 0.234966 0.300000 0.600000 0.000000
-0.219297 0.017020 0.127073 0.300000 0.600000 0.000000
0.406014 0.011626 -0.231460 0.600000 0.000000 0.300000
0.314088 -0.005374 -0.608716 0.600000 0.000000 0.300000
-0.140482 0.017017 0.168849 0.300000 0.600000 0.000000
-0.287081 -0.000345 -0.021174 0.500000 0.000000 0.500000
-0.088869 0.016352 -0.027207 0.300000 0.600000 0.000000
0.139220 0.029065 0.199748 0.000000 0.500000 0.500000
0.213415 -0.036953 0.269337 0.000000 0.500000 0.500000
-0.700605 0.017014 0.274844 0.300000 0.600000 0.000000
0.287132 0.001331 0.304639 0.000000 0.500000 0.500000
0.324844 -0.006435 0.270390 0.000000 0.500000 0.500000
-0.091173 0.017020 -0.119993 0.600000 0.000000 0.300000
0.040146 -0.036953 0.369914 0.000000 0.500000 0.500000
0.268130 -0.036953 0.621408 0.000000 0.500000 0.500000
0.298191 -0.026159 -0.613095 0.600000 0.000000 0.300000
-0.046645 0.015445 0.264685 0.000000 0.500000 0.500000
0.178186 0.016965 0.250923 0.000000 0.500000 0.500000
0.364751 -0.036874 -0.696372 0.600000 0.000000 0.300000
0.000392 -0.036953 0.452080 0.000000 0.500000 0.500000
0.359223 0.018586 -0.651685 0.600000 0.000000 0.300000
0.356443 -0.009247 0.342367 0.000000 0.500000 0.500000
-0.119731 0.017020 0.072130 0.300000 0.600000 0.000000
-0.289299 -0.016306 -0.058823 0.500000 0.000000 0.500000
-0.190016 0.000636 0.054452 0.500000 0.000000 0.500000
-0.230262 -0.018312 -0.068245 0.500000 0.000000 0.500000
0.325568 0.033944 -0.236020 0.600000 0.000000 0.300000
0.024214 -0.036953 0.216045 0.000000 0.500000 0.500000
-0.023533 -0.036953 0.377293 0.000000 0.500000 0.500000
-0.007627 -0.005224 0.497546 0.000000 0.500000 0.500000
0.006789 0.017020 -0.212797 0.600000 0.000000 0.300000
-0.388633 -0.000360 -0.174444 0.500000 0.000000 0.500000
0.050694 0.033944 -0.271616 0.600000 0.000000 0.300000
-0.158691 0.033944 0.033283 0.500000 0.500000 0.000000
-0.052740 -0.019974 -0.231575 0.600000 0.000000 0.300000
-0.069207 0.016020 0.030833 0.300000 0.600000 0.000000
0.079830 -0.036953 0.254171 0.000000 0.500000 0.500000
-0.884330 0.003619 0.376829 0.300000 0.600000 0.000000
-0.035324 -0.003051 -0.198392 0.600000 0.000000 0.300000
-0.289927 -0.016343 -0.143556 0.500000 0.000000 0.500000
-0.356626 -0.000516 0.234408 0.300000 0.600000 0.000000
-0.497452 0.000664 -0.230905 0.500000 0.000000 0.500000
-0.100259 0.016019 0.017318 0.300000 0.600000 0.000000
-0.571460 -0.003051 0.254823 0.300000 0.600000 0.000000
0.364809 0.016965 0.306966 0.000000 0.500000 0.500000
-0.742580 -0.002812 -0.296544 0.500000 0.000000 0.500000
-0.163325 -0.003051 0.101745 0.300000 0.600000 0.000000
0.112947 0.033944 -0.584504 0.600000 0.000000 0.300000
0.068346 0.016965 0.482614 0.000000 0.500000 0.500000
-0.321575 -0.000341 -0.103879 0.500000 0.000000 0.500000
-0.700567 -0.017343 -0.291662 0.500000 0.000000 0.500000
0.227150 -0.011665 0.247827 0.000000 0.500000 0.500000
0.420224 0.023293 -0.320839 0.600000 0.000000 0.300000
-0.238410 -0.000357 -0.113200 0.500000 0.000000 0.500000
0.043029 -0.026819 0.172193 0.000000 0.500000 0.500000
0.129985 -0.000049 0.236089 0.000000 0.500000 0.500000
-0.114733 0.015971 0.030104 0.500000 0.500000 0.000000
0.093369 -0.019974 -0.267756 0.600000 0.000000 0.300000
-0.376766 0.000639 -0.152861 0.500000 0.000000 0.500000
0.427530 -0.036953 0.375282 0.000000 0.500000 0.500000
-0.028981 -0.019974 -0.289943 0.600000 0.000000 0.300000
-0.032936 -0.000320 0.047294 0.000000 0.500000 0.500000
0.001689 -0.019974 -0.360071 0.600000 0.000000 0.300000
0.079114 0.016965 0.462232 0.000000 0.500000 0.500000
-0.597363 -0.003051 0.225529 0.300000 0.600000 0.000000
-0.024146 -0.019974 -0.199462 0.600000 0.000000 0.300000
-0.340968 -0.000341 -0.112193 0.500000 0.000000 0.500000
0.080271 -0.017168 -0.224749 0.600000 0.000000 0.300000
-0.001726 -0.036953 0.429403 0.000000 0.500000 0.500000
0.451408 0.033944 -0.496054 0.600000 0.000000 0.300000
0.165085 -0.019974 -0.115760 0.600000 0.000000 0.300000
0.310611 -0.002002 -0.159927 0.600000 0.000000 0.300000
0.365024 -0.022241 0.636012 0.000000 0.500000 0.500000
-0.680498 0.015225 0.252342 0.300000 0.600000 0.000000
-0.224760 -0.003051 0.063754 0.300000 0.600000 0.000000
0.239101 -0.029926 0.222034 0.000000 0.500000 0.500000
0.232580 0.016965 0.632514 0.000000 0.500000 0.500000
0.245080 -0.002654 0.223758 0.000000 0.500000 0.500000
-0.050145 -0.016343 -0.058024 0.500000 0.000000 0.500000
-0.133109 -0.000328 -0.006143 0.500000 0.000000 0.500000
-0.300132 -0.018314 -0.097962 0.500000 0.000000 0.500000
0.454002 0.015110 -0.556982 0.600000 0.000000 0.300000
0.344625 -0.023422 0.280241 0.000000 0.500000 0.500000
-0.415780 0.000641 -0.162192 0.500000 0.000000 0.500000
-0.432802 -0.018312 -0.140368 0.500000 0.000000 0.500000
-0.660183 -0.016550 -0.243148 0.500000 0.000000 0.500000
0.000651 -0.003051 -0.143626 0.600000 0.000000 0.300000
0.318424 -0.019974 -0.227146 0.600000 0.000000 0.300000
0.136256 0.013305 0.578058 0.000000 0.500000 0.500000
0.311321 -0.019974 -0.181233 0.600000 0.000000 0.300000
0.015799 -0.011529 0.181652 0.000000 0.500000 0.500000
-0.241674 0.001352 0.203976 0.300000 0.600000 0.000000
-0.079103 -0.003051 -0.019091 0.300000 0.600000 0.000000
0.281811 -0.006932 0.253642 0.000000 0.500000 0.500000
-0.329026 0.017020 0.183546 0.300000 0.600000 0.000000
0.406542 0.016965 0.519750 0.000000 0.500000 0.500000
-0.134192 -0.000037 0.174976 0.300000 0.600000 0.000000
-0.085637 0.017020 0.066620 0.300000 0.600000 0.000000
0.419569 -0.036953 0.560757 0.000000 0.500000 0.500000
-0.085163 0.016020 -0.157980 0.600000 0.000000 0.300000
-0.001284 -0.019974 -0.190082 0.600000 0.000000 0.300000
0.399369 0.016965 0.328736 0.000000 0.500000 0.500000
0.147923 0.016136 0.195728 0.000000 0.500000 0.500000
-0.797687 -0.003051 0.343099 0.300000 0.600000 0.000000
0.426091 -0.020042 -0.486505 0.600000 0.000000 0.300000
0.404799 0.016965 0.360726 0.000000 0.500000 0.500000
-0.123866 0.017020 -0.059453 0.600000 0.000000 0.300000
0.316750 -0.019974 -0.283421 0.600000 0.000000 0.300000
0.427047 -0.016966 0.576229 0.000000 0.500000 0.500000
