ply
format ascii 1.0
element vertex 1261
property float x
property float y
property float z
property uchar red
property uchar green
property uchar blue
end_header
-0.788715 0.006294 0.350256 76 153 0
0.437520 -0.020228 -0.521960 153 0 76
0.290289 0.016966 0.615110 0 127 127
-0.165152 0.000657 0.052970 127 0 127
0.019255 -0.019974 -0.197116 153 0 76
0.009952 -0.017311 0.028663 0 127 127
0.426106 -0.020091 -0.508500 153 0 76
-0.006368 -0.019974 -0.245282 153 0 76
-0.149590 -0.002001 0.118625 76 153 0
0.162865 0.033944 -0.145166 153 0 76
-0.340752 -0.017317 -0.109660 127 0 127
-0.069227 -0.011072 -0.200657 153 0 76
0.124053 -0.014947 0.628595 0 127 127
0.329241 -0.019974 -0.182719 153 0 76
-0.198528 -0.017342 -0.117387 127 0 127
-0.003657 0.016966 0.492673 0 127 127
-0.326678 -0.017305 -0.077011 127 0 127
-0.166983 0.000676 0.031812 127 0 127
0.286839 0.033944 -0.239879 153 0 76
-0.262252 0.000654 -0.087523 127 0 127
0.225462 -0.019974 -0.275272 153 0 76
0.331292 -0.009196 0.653449 0 127 127
0.013452 0.033944 -0.391741 153 0 76
0.139114 -0.036953 0.326107 0 127 127
0.320693 0.016966 0.316444 0 127 127
-0.076377 -0.017331 0.127032 0 127 127
0.099855 0.009249 -0.461434 153 0 76
-0.493187 -0.002001 0.172338 76 153 0
0.396017 0.016648 0.401267 0 127 127
-0.011423 0.015971 -0.102654 153 0 76
0.168013 0.033944 -0.603302 153 0 76
0.395639 0.033944 -0.622262 153 0 76
0.358379 -0.038542 -0.662122 153 0 76
-0.401669 -0.008134 -0.071794 127 0 127
0.218418 0.033944 -0.266554 153 0 76
0.114442 0.001665 -0.613807 153 0 76
-0.342795 0.000668 -0.083872 127 0 127
-0.882878 -0.001961 0.362844 76 153 0
0.258048 -0.037408 0.253403 0 127 127
0.282669 -0.019367 0.250736 0 127 127
0.258807 0.033944 -0.214726 153 0 76
-0.107775 0.033944 0.073206 127 127 0
0.031467 -0.019974 -0.316856 153 0 76
0.130094 -0.042827 0.208989 0 127 127
0.333366 0.033302 -0.314409 153 0 76
0.029498 0.000693 0.144906 0 127 127
0.386747 -0.031655 0.306495 0 127 127
-0.026653 -0.026959 0.447072 0 127 127
0.438238 0.016966 0.460236 0 127 127
-0.793524 0.015971 0.317226 76 153 0
-0.045010 -0.017319 0.143444 0 127 127
0.061060 0.011222 -0.571692 153 0 76
0.094940 0.007995 0.244631 0 127 127
-0.061753 0.022574 0.026115 127 127 0
0.236847 0.031504 -0.133291 153 0 76
-0.114805 -0.017320 -0.035892 127 0 127
0.331502 -0.028981 -0.625885 153 0 76
0.062545 0.023517 -0.181650 153 0 76
0.277468 -0.007286 0.248131 0 127 127
-0.332262 0.015971 0.104289 76 153 0
0.093724 0.016966 0.297973 0 127 127
0.076119 0.004195 -0.126599 153 0 76
0.169718 0.016966 0.620237 0 127 127
0.386658 0.033944 -0.221512 153 0 76
-0.515096 0.003877 0.276799 76 153 0
0.159780 -0.015880 -0.330580 153 0 76
0.208937 -0.026514 0.213331 0 127 127
-0.418407 -0.017311 -0.119647 127 0 127
0.154945 0.029065 0.198572 0 127 127
-0.002879 -0.036953 0.433943 0 127 127
-0.279241 -0.002001 0.036862 76 153 0
0.197921 0.033944 -0.232161 153 0 76
-0.100231 -0.005055 0.133648 127 0 127
0.394657 0.019538 -0.259711 153 0 76
0.400562 0.016966 0.593594 0 127 127
-0.089209 0.000691 0.062510 127 0 127
-0.190237 0.015971 0.098412 76 153 0
0.328907 -0.036953 0.636773 0 127 127
-0.056657 -0.017286 0.063502 0 127 127
-0.056681 0.016966 0.222529 0 127 127
-0.085101 0.015971 -0.006444 127 127 0
0.123713 -0.007139 0.355356 0 127 127
0.369222 0.033944 -0.592310 153 0 76
0.403585 -0.020259 -0.347025 153 0 76
0.413822 0.033944 -0.356707 153 0 76
0.364519 -0.024951 0.292641 0 127 127
0.170443 -0.025395 0.318831 0 127 127
0.428088 -0.020268 -0.553553 153 0 76
0.230571 -0.029114 0.667740 0 127 127
0.065075 -0.019974 -0.552875 153 0 76
0.115087 -0.017169 0.247097 0 127 127
-0.013411 0.009177 -0.347358 153 0 76
0.178919 0.016966 0.235066 0 127 127
-0.069186 -0.017339 -0.064639 127 0 127
0.212952 0.033944 -0.610735 153 0 76
-0.245367 0.000677 -0.020244 127 0 127
0.342854 0.016966 0.319831 0 127 127
-0.024112 0.016966 0.389228 0 127 127
-0.066817 0.015971 0.064510 76 153 0
-0.113025 0.027319 -0.032968 127 127 0
0.021007 0.033944 -0.281051 153 0 76
0.247040 0.014816 0.669953 0 127 127
0.251617 -0.019914 0.244624 0 127 127
0.420428 -0.001107 -0.443371 153 0 76
0.055391 0.016966 0.301287 0 127 127
0.089158 0.024030 -0.593859 153 0 76
0.036732 0.013732 -0.146667 153 0 76
0.458566 -0.036953 0.490778 0 127 127
0.413171 -0.036459 0.594155 0 127 127
0.309422 -0.036953 0.609142 0 127 127
0.094745 -0.022668 0.180387 0 127 127
-0.030232 0.015971 -0.153758 153 0 76
0.095358 0.033944 -0.276663 153 0 76
0.363645 -0.024691 -0.590837 153 0 76
0.332984 0.007091 -0.263831 153 0 76
-0.684138 0.000639 -0.271389 127 0 127
0.051251 -0.036953 0.305103 0 127 127
-0.104582 -0.002001 0.104229 76 153 0
-0.158526 0.033944 0.049714 127 127 0
0.146114 0.033944 -0.169445 153 0 76
-0.508917 0.010417 0.157308 76 153 0
0.425435 -0.020027 -0.432197 153 0 76
0.372568 -0.020542 -0.650522 153 0 76
-0.282995 0.000666 -0.066254 127 0 127
-0.630812 -0.010687 -0.283697 127 0 127
-0.603316 -0.001332 -0.205121 127 0 127
0.384630 0.006369 -0.637912 153 0 76
0.089404 0.033944 -0.220554 153 0 76
0.459556 -0.026110 0.429155 0 127 127
-0.338660 0.000651 -0.122122 127 0 127
-0.155673 0.022519 0.011979 127 127 0
0.322269 -0.014577 0.269388 0 127 127
-0.671661 0.000630 -0.253748 127 0 127
0.134777 0.033944 -0.210639 153 0 76
0.251008 -0.032123 0.244514 0 127 127
-0.253110 0.000672 -0.042208 127 0 127
0.038368 0.033944 -0.461366 153 0 76
-0.494606 -0.017334 -0.145792 127 0 127
-0.163202 0.000646 -0.069449 127 0 127
-0.050368 -0.015869 -0.191047 153 0 76
0.054790 0.016966 0.399623 0 127 127
-0.001383 0.002214 -0.086162 153 0 76
-0.067341 -0.019974 -0.210698 153 0 76
-0.056861 0.006881 -0.194355 153 0 76
0.223314 0.016966 0.635265 0 127 127
0.208426 0.016966 0.256148 0 127 127
-0.509616 0.015971 0.192247 76 153 0
-0.268017 -0.017343 -0.145100 127 0 127
0.135421 0.002639 -0.559534 153 0 76
0.007877 -0.017278 0.106388 0 127 127
0.334815 -0.036953 0.304022 0 127 127
-0.157080 0.015971 0.082523 76 153 0
0.035210 0.033944 -0.293464 153 0 76
-0.603891 -0.002001 0.249239 76 153 0
0.176850 0.007471 0.605882 0 127 127
0.141467 -0.019974 -0.179580 153 0 76
0.322309 -0.019974 -0.273956 153 0 76
0.349111 0.033944 -0.291081 153 0 76
-0.011526 -0.002001 -0.027104 76 153 0
-0.045429 0.015971 0.037798 76 153 0
0.117677 0.016966 0.307500 0 127 127
0.461181 -0.026690 0.477421 0 127 127
-0.277726 0.015971 0.162583 76 153 0
0.246536 -0.019974 -0.287584 153 0 76
0.401450 -0.020225 -0.583093 153 0 76
-0.335819 0.015971 0.176924 76 153 0
0.420544 0.021690 -0.454450 153 0 76
0.154083 -0.018534 0.235267 0 127 127
0.120401 0.010840 0.360247 0 127 127
0.012837 -0.036953 0.510385 0 127 127
-0.545747 0.015971 0.186878 76 153 0
-0.176684 -0.017298 -0.006835 127 0 127
-0.277167 0.015971 0.097341 76 153 0
0.046018 -0.036953 0.329528 0 127 127
0.082424 -0.016816 -0.123386 153 0 76
-0.038237 -0.017295 0.049628 0 127 127
0.420686 -0.019493 -0.467959 153 0 76
0.210098 -0.019974 -0.246071 153 0 76
-0.014247 -0.031276 0.479986 0 127 127
0.063183 0.016966 0.469554 0 127 127
-0.183857 0.015971 0.155792 76 153 0
0.035999 0.006744 -0.159530 153 0 76
-0.317672 -0.008617 -0.016255 127 0 127
-0.062061 0.000669 0.019466 127 0 127
-0.136114 0.015971 -0.022797 127 127 0
0.312096 0.024279 -0.257618 153 0 76
-0.077632 -0.002001 -0.152656 153 0 76
-0.030073 -0.019656 0.433109 0 127 127
-0.161495 -0.002001 0.099556 76 153 0
0.371847 0.016966 0.580813 0 127 127
0.206468 0.007424 0.664502 0 127 127
-0.038623 -0.002001 -0.075269 127 0 127
-0.005430 0.033944 -0.373493 153 0 76
0.168042 -0.036953 0.260669 0 127 127
0.337709 -0.032482 -0.641626 153 0 76
0.193457 -0.013470 -0.603733 153 0 76
-0.210395 -0.017336 -0.109558 127 0 127
-0.412486 0.000659 -0.112781 127 0 127
-0.020488 -0.002585 -0.408191 153 0 76
-0.567811 -0.013605 -0.261132 127 0 127
-0.226677 0.000679 -0.016600 127 0 127
-0.609868 -0.002001 0.285826 76 153 0
0.349671 -0.001166 -0.323596 153 0 76
-0.075638 0.008426 0.136111 76 153 0
-0.048446 -0.002001 -0.093716 153 0 76
0.241559 0.016966 0.644849 0 127 127
0.115886 -0.019974 -0.267892 153 0 76
-0.004327 -0.019974 -0.268828 153 0 76
-0.350090 0.001567 0.232502 76 153 0
0.232611 -0.029637 0.241194 0 127 127
0.349904 -0.026794 -0.668977 153 0 76
0.007235 -0.036953 0.203241 0 127 127
-0.448515 0.000631 -0.206602 127 0 127
-0.270834 -0.002001 0.171128 76 153 0
-0.127324 -0.002001 0.162370 76 153 0
0.122533 -0.030632 0.236642 0 127 127
-0.865830 0.008285 0.370958 76 153 0
-0.206304 -0.002001 -0.005944 127 0 127
-0.040586 -0.017317 -0.002692 0 127 127
-0.002899 0.033944 -0.357369 153 0 76
-0.063917 -0.002001 0.099375 0 127 127
-0.748004 -0.017346 -0.324393 127 0 127
-0.588458 0.008309 0.201025 76 153 0
0.094457 0.002649 0.610149 0 127 127
-0.377616 -0.017329 -0.151535 127 0 127
0.361406 0.009778 -0.650501 153 0 76
0.299027 0.005642 -0.612920 153 0 76
0.372948 0.015664 -0.343213 153 0 76
0.133596 -0.019974 -0.281799 153 0 76
0.443128 0.033944 -0.510615 153 0 76
-0.363062 -0.002001 0.206085 76 153 0
0.375579 -0.019974 -0.221299 153 0 76
-0.037708 0.000693 0.084464 0 127 127
-0.747063 0.009968 0.288197 76 153 0
-0.098497 -0.017309 -0.005038 127 0 127
0.269992 -0.036953 0.652294 0 127 127
0.021722 0.033944 -0.198729 153 0 76
0.049072 -0.019974 -0.397229 153 0 76
-0.039935 0.015971 -0.084287 153 0 76
0.101428 -0.042827 0.228559 0 127 127
0.095272 0.033944 -0.506117 153 0 76
-0.012168 0.008664 -0.063342 153 0 76
0.138578 0.023697 0.243726 0 127 127
0.379341 -0.019974 -0.267149 153 0 76
0.298359 0.033944 -0.626536 153 0 76
-0.520372 -0.002001 0.268289 76 153 0
-0.237560 0.015971 0.085352 76 153 0
0.069289 0.033944 -0.532290 153 0 76
-0.018818 -0.027277 0.327778 0 127 127
-0.393098 0.000643 -0.158601 127 0 127
0.035514 0.033944 -0.385551 153 0 76
0.445352 0.016966 0.442442 0 127 127
-0.043232 -0.002001 -0.015081 127 0 127
0.059635 0.016966 0.290953 0 127 127
-0.260720 0.015971 0.092560 76 153 0
-0.172839 -0.017318 -0.053674 127 0 127
0.342771 0.026537 -0.175873 153 0 76
0.420777 0.019382 -0.476664 153 0 76
-0.625436 0.000494 -0.281770 127 0 127
-0.142855 0.000678 0.046452 127 0 127
-0.761706 0.013165 0.343005 76 153 0
-0.433585 0.015971 0.183047 76 153 0
0.436313 -0.020269 -0.385006 153 0 76
-0.791787 0.000320 -0.341352 127 0 127
-0.107497 0.015971 -0.093405 153 0 76
-0.096281 -0.017318 -0.024455 127 0 127
-0.312365 0.000648 -0.119672 127 0 127
-0.365018 0.000635 -0.056028 127 0 127
0.313711 0.016966 0.296485 0 127 127
-0.061599 -0.002001 -0.141695 153 0 76
0.104748 0.024294 -0.112011 153 0 76
-0.267005 -0.002001 0.041568 76 153 0
0.330831 -0.019974 -0.239538 153 0 76
-0.625776 0.008517 0.306513 76 153 0
0.352015 -0.036953 0.315407 0 127 127
-0.032459 0.000650 0.165280 0 127 127
0.396899 0.033944 -0.367870 153 0 76
-0.351048 0.015971 0.223582 76 153 0
0.395714 -0.019981 -0.545011 153 0 76
0.415233 0.008885 -0.416191 153 0 76
0.007948 -0.017307 0.204015 0 127 127
-0.357418 0.000650 -0.067010 127 0 127
0.012010 0.016966 0.270775 0 127 127
0.365826 0.025264 -0.578601 153 0 76
-0.012082 0.033944 -0.323518 153 0 76
-0.438584 0.015971 0.230271 76 153 0
-0.346577 -0.013035 -0.181893 127 0 127
-0.037109 0.000672 0.122253 0 127 127
-0.001436 0.033944 -0.175904 153 0 76
-0.014224 -0.002001 -0.179620 153 0 76
0.186801 0.027494 -0.314341 153 0 76
0.165354 0.000566 0.599059 0 127 127
0.415629 0.033944 -0.544787 153 0 76
0.006453 0.021478 -0.162096 153 0 76
-0.052496 0.016966 0.248170 0 127 127
-0.816835 0.007928 0.326545 76 153 0
0.152615 0.029065 0.230712 0 127 127
0.386225 -0.036953 0.338967 0 127 127
0.034532 0.008930 0.557051 0 127 127
0.117820 0.008513 -0.105351 153 0 76
-0.616396 0.015971 0.256381 76 153 0
0.016074 0.016966 0.372262 0 127 127
0.294666 -0.019974 -0.223047 153 0 76
0.069794 0.016966 0.510857 0 127 127
0.145245 0.033944 -0.234063 153 0 76
0.074144 -0.019974 -0.300806 153 0 76
-0.314418 0.015971 0.184212 76 153 0
-0.219693 0.015971 0.029987 76 153 0
-0.155497 -0.017307 -0.021008 127 0 127
-0.363083 0.000664 -0.085373 127 0 127
0.220566 -0.026640 0.216686 0 127 127
0.088983 -0.011690 -0.593722 153 0 76
0.401389 -0.038220 -0.586664 153 0 76
0.091721 -0.019974 -0.265503 153 0 76
0.009314 0.015971 -0.181432 153 0 76
0.188467 -0.036953 0.252351 0 127 127
-0.548262 -0.017341 -0.174465 127 0 127
-0.464878 -0.017340 -0.209980 127 0 127
-0.203021 -0.002001 0.045922 127 0 127
0.002894 0.016966 0.191231 0 127 127
0.039568 -0.025476 0.561741 0 127 127
0.218947 0.033944 -0.224942 153 0 76
-0.140709 0.002496 -0.086208 127 0 127
0.410845 -0.036953 0.548431 0 127 127
-0.456535 0.015971 0.132040 76 153 0
-0.696012 0.015971 0.317256 76 153 0
0.211782 -0.036953 0.638352 0 127 127
-0.254949 0.015971 0.057452 76 153 0
0.104195 0.006023 0.384183 0 127 127
0.174320 0.016966 0.639451 0 127 127
-0.306900 -0.002001 0.057828 76 153 0
0.067169 0.033944 -0.249893 153 0 76
-0.435588 -0.017337 -0.103729 127 0 127
0.361338 -0.010443 -0.183336 153 0 76
0.423731 -0.036953 0.509012 0 127 127
0.069412 0.029914 -0.578281 153 0 76
-0.005251 -0.019974 -0.179041 153 0 76
-0.672133 0.015971 0.311839 76 153 0
0.361084 0.016271 0.290500 0 127 127
-0.136911 0.015971 0.152618 76 153 0
0.384032 -0.037993 -0.567333 153 0 76
0.139426 0.033944 -0.342570 153 0 76
-0.037810 -0.002001 -0.193469 153 0 76
-0.089514 0.015971 0.094197 76 153 0
-0.032533 -0.025957 0.378254 0 127 127
0.371415 0.016966 0.606913 0 127 127
-0.225353 -0.017344 -0.131932 127 0 127
-0.534324 -0.002001 0.272979 76 153 0
0.160457 -0.017817 -0.584052 153 0 76
-0.644125 -0.017342 -0.276650 127 0 127
0.440673 0.006145 0.549020 0 127 127
0.290343 0.005681 0.256962 0 127 127
-0.330442 0.011104 0.227227 76 153 0
-0.611345 0.000631 -0.264919 127 0 127
0.054397 0.033944 -0.244943 153 0 76
0.066266 0.016966 0.225684 0 127 127
0.006316 -0.019974 -0.339810 153 0 76
-0.031242 -0.036953 0.224289 0 127 127
0.381500 0.016966 0.566202 0 127 127
0.002882 0.033944 -0.344860 153 0 76
-0.031364 0.005429 0.374201 0 127 127
-0.063224 -0.017340 0.155545 0 127 127
0.231552 -0.036953 0.629404 0 127 127
-0.610523 -0.017339 -0.259338 127 0 127
0.014662 -0.017290 0.164764 0 127 127
0.299952 -0.024643 0.664661 0 127 127
0.405434 -0.035011 0.438128 0 127 127
0.172005 0.000116 -0.323091 153 0 76
0.121715 -0.042827 0.241005 0 127 127
-0.743660 -0.005949 -0.324115 127 0 127
0.020369 0.033944 -0.180290 153 0 76
0.215642 0.025065 -0.238767 153 0 76
0.387695 0.007236 0.384129 0 127 127
0.167715 -0.019974 -0.254665 153 0 76
0.007135 0.033944 -0.404009 153 0 76
-0.053820 -0.017344 -0.072001 127 0 127
0.333408 0.033944 -0.303132 153 0 76
-0.036744 0.000632 0.228809 0 127 127
0.103072 0.014267 0.250576 0 127 127
0.096093 -0.042827 0.188579 0 127 127
0.110581 0.016966 0.591700 0 127 127
0.069166 0.016966 0.213470 0 127 127
0.411499 -0.005473 -0.402818 153 0 76
0.229744 -0.020395 -0.653907 153 0 76
0.125329 0.033944 -0.145769 153 0 76
0.374069 -0.020372 -0.628270 153 0 76
-0.042965 0.015971 0.022477 76 153 0
-0.121171 -0.017293 0.024840 127 0 127
-0.163866 -0.002001 0.119083 76 153 0
-0.027598 0.007804 0.307871 0 127 127
0.023369 0.006061 -0.153476 153 0 76
0.418835 0.033944 -0.333534 153 0 76
-0.133996 -0.002001 -0.012872 76 153 0
-0.249882 -0.002001 0.041329 76 153 0
0.475308 0.008616 -0.446087 153 0 76
-0.392655 0.000635 -0.178581 127 0 127
-0.010583 0.005120 0.489706 0 127 127
-0.689915 -0.010665 -0.304866 127 0 127
0.108668 0.020099 -0.249983 153 0 76
-0.595837 -0.002001 0.228525 76 153 0
-0.663896 0.005414 0.242487 76 153 0
-0.058827 0.015971 -0.069103 153 0 76
-0.193315 -0.017316 -0.056517 127 0 127
-0.357888 0.000631 -0.174412 127 0 127
0.135307 0.024389 -0.096441 153 0 76
-0.242827 0.015971 0.132005 76 153 0
0.025000 -0.036953 0.292465 0 127 127
-0.035957 0.015971 -0.237166 153 0 76
-0.226812 0.015971 0.175036 76 153 0
0.242397 -0.003694 0.299171 0 127 127
-0.114989 -0.017300 0.009231 127 0 127
-0.441086 -0.017314 -0.138478 127 0 127
-0.408044 -0.002001 0.177049 76 153 0
-0.007893 -0.019974 -0.382250 153 0 76
-0.414286 0.007860 0.105297 76 153 0
0.369522 -0.003984 -0.574827 153 0 76
0.251952 0.033944 -0.180567 153 0 76
-0.455636 0.000634 -0.115006 127 0 127
-0.302528 0.015971 0.161198 76 153 0
0.271653 -0.042796 0.231425 0 127 127
0.249707 -0.019974 -0.187872 153 0 76
0.198721 -0.019974 -0.181580 153 0 76
-0.828208 -0.002001 0.352082 76 153 0
-0.213754 -0.002001 0.170594 76 153 0
0.203590 0.006499 -0.237601 153 0 76
0.107851 0.033944 -0.595307 153 0 76
-0.588457 -0.002001 0.254337 76 153 0
0.453439 -0.006003 -0.368705 153 0 76
0.127620 0.004227 0.568088 0 127 127
0.063019 0.033944 -0.431474 153 0 76
0.128529 0.016966 0.297962 0 127 127
-0.120748 0.015971 -0.020770 76 153 0
0.101375 -0.031679 0.614461 0 127 127
0.213806 0.004400 -0.658537 153 0 76
0.418981 -0.015974 -0.319765 153 0 76
-0.035143 -0.017306 0.129067 0 127 127
-0.186711 0.000114 -0.019783 76 153 0
-0.449883 -0.008777 -0.218894 127 0 127
-0.319011 0.015971 0.105065 76 153 0
-0.580557 0.000637 -0.240338 127 0 127
-0.808988 0.015971 0.343512 76 153 0
0.033778 -0.036953 0.432153 0 127 127
-0.061696 -0.002001 0.043119 127 0 127
0.332332 0.033944 -0.614001 153 0 76
0.369351 0.027137 -0.281620 153 0 76
-0.349286 0.000653 -0.119862 127 0 127
0.341545 -0.028798 0.649781 0 127 127
-0.301206 0.015971 0.096010 76 153 0
0.408403 0.009590 -0.520914 153 0 76
-0.053956 -0.017298 0.036525 0 127 127
-0.689944 0.015971 0.271847 76 153 0
0.183528 0.029065 0.209817 0 127 127
-0.052872 0.015971 -0.178634 153 0 76
0.186180 0.033944 -0.126296 153 0 76
-0.473200 0.015971 0.168531 76 153 0
-0.277440 -0.002001 0.190873 76 153 0
0.270205 -0.019974 -0.148318 153 0 76
0.324516 0.033944 -0.229681 153 0 76
-0.058664 -0.017343 0.175083 0 127 127
-0.048577 -0.019974 -0.262298 153 0 76
-0.002142 -0.002001 -0.149950 153 0 76
0.270620 0.023717 -0.296766 153 0 76
0.409682 -0.026191 0.597947 0 127 127
0.103670 -0.019974 -0.115053 153 0 76
0.065344 -0.019974 -0.492809 153 0 76
0.265103 0.033944 -0.182537 153 0 76
-0.067130 0.000688 0.063081 0 127 127
-0.339807 -0.017341 -0.167162 127 0 127
0.389945 0.033944 -0.562784 153 0 76
0.276825 -0.018585 0.232917 0 127 127
-0.731947 0.004289 0.279889 76 153 0
0.183663 -0.019974 -0.202150 153 0 76
-0.730733 -0.006940 -0.319485 127 0 127
-0.114326 -0.002001 0.099476 127 0 127
0.196576 0.025210 -0.117102 153 0 76
0.189846 0.033944 -0.651375 153 0 76
0.277973 -0.019974 -0.295086 153 0 76
0.229260 0.023121 -0.663134 153 0 76
0.124059 -0.019974 -0.608388 153 0 76
0.065981 -0.036953 0.519118 0 127 127
-0.258745 0.015684 0.019808 76 153 0
-0.348655 0.000646 -0.137409 127 0 127
-0.883512 0.010472 0.375705 76 153 0
0.034984 -0.006747 0.073252 0 127 127
0.364078 0.016966 0.342628 0 127 127
0.090045 0.033944 -0.183748 153 0 76
-0.801823 0.005618 0.318295 76 153 0
0.052773 0.016966 0.272942 0 127 127
-0.635661 -0.002001 0.284808 76 153 0
0.140470 -0.019974 -0.579351 153 0 76
-0.030543 -0.007411 0.301193 0 127 127
-0.053557 -0.004610 -0.268567 153 0 76
0.321978 0.033944 -0.632831 153 0 76
-0.076145 -0.017308 0.103637 0 127 127
0.369026 -0.019974 -0.204346 153 0 76
-0.273949 -0.017309 -0.068551 127 0 127
0.035825 0.033944 -0.253952 153 0 76
-0.146563 -0.002001 -0.050125 127 0 127
0.085572 0.033944 -0.469319 153 0 76
0.443819 0.016966 0.495169 0 127 127
0.061045 0.002453 -0.178001 153 0 76
0.036070 -0.036953 0.257528 0 127 127
0.084566 0.008989 0.219783 0 127 127
-0.387119 0.015971 0.109528 76 153 0
-0.789053 -0.013994 -0.340375 127 0 127
-0.091425 0.015971 0.073325 76 153 0
0.145642 0.033944 -0.587382 153 0 76
-0.427144 -0.017320 -0.147633 127 0 127
0.098010 0.033944 -0.547843 153 0 76
0.042366 -0.019974 -0.277536 153 0 76
0.457841 -0.018309 0.501293 0 127 127
0.097298 -0.019974 -0.393145 153 0 76
0.043101 -0.019974 -0.382813 153 0 76
0.444976 0.007590 -0.574264 153 0 76
0.096368 -0.025493 0.403319 0 127 127
-0.385367 -0.017336 -0.171449 127 0 127
0.453749 0.016966 0.408233 0 127 127
-0.255657 -0.017307 -0.057054 127 0 127
0.187671 -0.018544 0.242049 0 127 127
0.074363 -0.036953 0.247396 0 127 127
0.231127 -0.036953 0.264169 0 127 127
0.066945 -0.001560 -0.131273 153 0 76
0.028566 -0.011155 0.054773 0 127 127
0.227145 0.030272 -0.614346 153 0 76
0.277893 0.024055 0.259433 0 127 127
0.018604 -0.019974 -0.360957 153 0 76
0.276947 0.015971 -0.136566 153 0 76
-0.071756 -0.010568 -0.232849 153 0 76
0.155954 -0.036953 0.297486 0 127 127
0.085669 -0.019974 -0.159643 153 0 76
0.352676 -0.019974 -0.190596 153 0 76
0.449867 0.033944 -0.399019 153 0 76
-0.264854 0.005449 0.209619 76 153 0
0.076223 0.033944 -0.552115 153 0 76
0.103001 0.033944 -0.571971 153 0 76
0.013735 -0.002001 -0.136859 153 0 76
-0.451036 0.001111 0.125495 76 153 0
-0.523712 0.008004 0.165439 76 153 0
-0.320545 -0.017314 -0.095400 127 0 127
-0.012208 -0.017307 0.165077 0 127 127
0.332220 0.033944 -0.202856 153 0 76
0.093061 0.027809 0.247946 0 127 127
-0.119884 -0.017312 0.078668 127 0 127
-0.413162 0.015971 0.135722 76 153 0
-0.034807 -0.017324 0.164133 0 127 127
0.065381 0.016966 0.432776 0 127 127
0.051804 -0.002001 -0.213085 153 0 76
0.296953 -0.017850 0.238724 0 127 127
0.356726 0.033944 -0.212694 153 0 76
-0.291032 -0.017340 -0.146581 127 0 127
-0.340433 0.015971 0.203484 76 153 0
0.108673 -0.036953 0.277157 0 127 127
0.294099 -0.036953 0.621851 0 127 127
-0.733982 -0.017341 -0.308544 127 0 127
-0.456891 -0.017318 -0.155075 127 0 127
0.011995 -0.014900 0.007069 0 127 127
0.419080 -0.036953 0.420456 0 127 127
0.017904 -0.002001 -0.204570 153 0 76
-0.665013 -0.017341 -0.283815 127 0 127
0.005806 0.016966 0.391725 0 127 127
-0.320916 0.000633 -0.158262 127 0 127
-0.196963 0.015971 0.125301 76 153 0
-0.313639 -0.009713 -0.170095 127 0 127
-0.120391 0.033944 0.063782 127 127 0
0.405483 0.026754 -0.232781 153 0 76
-0.125771 0.025722 0.073301 127 127 0
0.437613 0.033944 -0.454930 153 0 76
0.328538 -0.002543 -0.311688 153 0 76
-0.098973 -0.002001 0.014018 127 0 127
0.442812 -0.014730 -0.351645 153 0 76
0.445688 -0.036953 0.527236 0 127 127
-0.513867 0.015971 0.174406 76 153 0
0.265234 0.033944 -0.278407 153 0 76
0.402334 -0.020300 -0.594461 153 0 76
0.108523 0.013646 -0.510396 153 0 76
0.297954 -0.020227 -0.641810 153 0 76
0.001465 0.016966 0.234751 0 127 127
0.425152 0.018550 -0.326913 153 0 76
-0.059984 0.015971 -0.117788 153 0 76
-0.066144 0.033944 -0.230990 153 0 76
-0.095389 -0.002001 0.098153 127 0 127
0.278588 0.016966 0.279777 0 127 127
-0.469003 -0.002001 0.194060 76 153 0
-0.158700 -0.017289 0.020708 127 0 127
0.277401 0.033944 -0.661492 153 0 76
0.461231 0.033944 -0.511912 153 0 76
0.398777 -0.019975 -0.221965 153 0 76
0.017615 -0.036953 0.387678 0 127 127
-0.407446 -0.017310 -0.117506 127 0 127
0.023636 0.016966 0.336638 0 127 127
0.281556 0.002608 0.234282 0 127 127
0.357158 0.016966 0.629156 0 127 127
0.079976 0.033944 -0.491223 153 0 76
-0.017285 -0.035225 0.193145 0 127 127
0.406441 0.000431 0.470237 0 127 127
0.034117 0.033944 -0.471454 153 0 76
-0.755223 -0.008603 -0.305563 127 0 127
-0.059683 -0.003560 0.207873 0 127 127
-0.573173 -0.002001 0.257620 76 153 0
-0.466517 -0.002001 0.205632 76 153 0
-0.081317 -0.017283 0.060971 127 0 127
-0.736204 -0.002001 0.329143 76 153 0
0.064305 0.016966 0.450045 0 127 127
-0.626706 0.015971 0.231051 76 153 0
0.030922 -0.019974 -0.428568 153 0 76
-0.689104 -0.002001 0.279871 76 153 0
0.476816 0.008705 -0.467311 153 0 76
-0.234490 -0.002001 0.111697 76 153 0
-0.000925 -0.019974 -0.372970 153 0 76
0.042294 -0.006404 0.094295 0 127 127
-0.111519 -0.002001 -0.004106 127 0 127
0.245355 -0.019974 -0.152973 153 0 76
-0.076030 -0.002001 -0.191082 153 0 76
0.220797 0.009077 -0.116221 153 0 76
-0.089709 -0.007618 0.157079 127 0 127
0.406802 0.033944 -0.212281 153 0 76
0.017290 -0.017287 0.143285 0 127 127
0.449914 0.016966 0.516699 0 127 127
0.150367 -0.019974 -0.238919 153 0 76
-0.564081 0.015971 0.222060 76 153 0
0.370532 -0.038384 -0.635060 153 0 76
0.189916 -0.003166 -0.114425 153 0 76
-0.810946 -0.002001 0.349435 76 153 0
0.104612 0.001034 -0.496390 153 0 76
-0.043720 0.015971 -0.009695 76 153 0
0.354377 -0.014085 0.643057 0 127 127
-0.316311 0.000656 -0.101169 127 0 127
0.209335 -0.033798 0.236994 0 127 127
0.289788 0.033944 -0.202570 153 0 76
-0.470751 0.005406 0.136331 76 153 0
0.129087 0.033944 -0.351926 153 0 76
-0.198106 0.015971 0.145771 76 153 0
0.075645 0.033944 -0.198026 153 0 76
0.447474 0.033944 -0.489192 153 0 76
0.348502 0.007036 0.335714 0 127 127
0.231759 -0.019974 -0.248403 153 0 76
0.019263 0.015971 -0.216370 153 0 76
0.250703 -0.020236 -0.644778 153 0 76
-0.014003 -0.017346 -0.062092 0 127 127
0.049404 -0.019974 -0.235806 153 0 76
-0.005824 -0.025155 0.189163 0 127 127
0.251500 -0.036953 0.627626 0 127 127
-0.172345 0.000645 -0.075754 127 0 127
0.082147 -0.036953 0.552613 0 127 127
-0.408723 0.000632 -0.191566 127 0 127
0.186901 -0.025079 0.609362 0 127 127
-0.026470 0.015971 -0.071442 153 0 76
0.092461 -0.019974 -0.440507 153 0 76
-0.085136 -0.002001 0.101284 0 127 127
-0.610569 0.006285 0.213178 76 153 0
0.218341 -0.008059 0.666097 0 127 127
-0.273680 -0.007287 0.012833 127 0 127
-0.821048 -0.014323 -0.349087 127 0 127
0.064304 0.015074 -0.215081 153 0 76
0.412761 0.003823 -0.314386 153 0 76
0.380827 0.033944 -0.600891 153 0 76
0.298141 0.028461 -0.301426 153 0 76
-0.399165 0.000656 -0.130970 127 0 127
-0.615446 0.015971 0.230976 76 153 0
-0.016059 0.013784 -0.438233 153 0 76
-0.852833 0.009881 0.346331 76 153 0
0.345848 0.033944 -0.643486 153 0 76
0.404399 0.019974 -0.621709 153 0 76
-0.196530 -0.017291 0.003194 127 0 127
0.337174 0.033944 -0.223773 153 0 76
-0.013667 0.016966 0.452167 0 127 127
-0.015687 0.000647 0.222174 0 127 127
-0.532115 0.008409 0.281368 76 153 0
0.115701 0.029065 0.188703 0 127 127
-0.302302 0.015971 0.212508 76 153 0
-0.132535 0.015971 0.116235 76 153 0
-0.006411 0.016966 0.378483 0 127 127
0.245653 -0.027699 0.669767 0 127 127
0.328587 0.006035 0.271847 0 127 127
0.433763 0.016966 0.487672 0 127 127
-0.648163 -0.002001 0.303235 76 153 0
-0.053905 -0.002001 -0.125919 153 0 76
0.089130 -0.019974 -0.242015 153 0 76
0.475494 -0.013209 -0.447409 153 0 76
0.321021 0.015971 -0.153249 153 0 76
0.327536 0.033944 -0.288789 153 0 76
-0.026899 0.015971 -0.039344 76 153 0
0.231731 -0.036953 0.659691 0 127 127
-0.016771 -0.002001 -0.256695 153 0 76
0.309425 -0.008175 -0.304323 153 0 76
0.359405 0.024727 -0.276490 153 0 76
0.041263 -0.019974 -0.333303 153 0 76
-0.128230 -0.002001 0.085374 127 0 127
0.365939 -0.036953 0.340378 0 127 127
0.095863 -0.013817 0.517429 0 127 127
0.330730 0.007695 0.323682 0 127 127
0.463831 -0.020406 -0.502320 153 0 76
-0.115499 -0.017340 -0.084074 127 0 127
0.094217 -0.036953 0.337868 0 127 127
0.003367 -0.017280 0.127239 0 127 127
-0.533245 0.015971 0.202744 76 153 0
0.023083 0.000675 0.209038 0 127 127
0.306346 0.033944 -0.185190 153 0 76
-0.186133 0.000637 0.059264 76 153 0
-0.167129 -0.017298 0.033164 127 0 127
0.052885 -0.017860 0.200004 0 127 127
-0.290824 0.015971 0.130926 76 153 0
-0.020813 0.008736 0.337607 0 127 127
-0.504888 0.000650 -0.163948 127 0 127
0.336787 0.009951 -0.661615 153 0 76
-0.264821 -0.002001 0.160183 76 153 0
0.037294 0.014116 -0.544250 153 0 76
0.281705 0.033944 -0.175611 153 0 76
-0.524748 0.015971 0.267002 76 153 0
-0.229005 -0.002001 0.128376 76 153 0
0.214375 0.033944 -0.639197 153 0 76
0.053129 -0.019974 -0.252832 153 0 76
0.291216 -0.028382 -0.653887 153 0 76
0.432595 0.016912 0.565152 0 127 127
-0.446162 0.000649 -0.124729 127 0 127
-0.282624 0.007280 0.032933 76 153 0
-0.041060 -0.036953 0.274385 0 127 127
-0.493765 -0.002001 0.224576 76 153 0
0.096353 0.016966 0.401141 0 127 127
-0.640671 -0.017344 -0.232552 127 0 127
0.008479 0.033944 -0.211016 153 0 76
0.426572 -0.036953 0.491469 0 127 127
0.433618 -0.030481 0.563108 0 127 127
0.049888 -0.036953 0.553479 0 127 127
-0.554515 0.015971 0.206928 76 153 0
0.015739 -0.036953 0.466794 0 127 127
0.097066 0.033944 -0.248189 153 0 76
-0.011224 0.033944 -0.415917 153 0 76
0.044084 0.012459 -0.175396 153 0 76
-0.391225 -0.002001 0.104315 76 153 0
0.159605 0.000288 0.235078 0 127 127
0.177368 0.028994 -0.238109 153 0 76
-0.009986 -0.008078 0.491288 0 127 127
0.272515 -0.036953 0.290616 0 127 127
0.338373 0.016966 0.282643 0 127 127
0.061896 -0.036953 0.530734 0 127 127
-0.293087 -0.017301 -0.047284 127 0 127
0.416992 0.027903 -0.491434 153 0 76
0.106164 0.033944 -0.515157 153 0 76
0.461210 0.016966 0.463683 0 127 127
-0.404017 0.015971 0.240351 76 153 0
0.241542 -0.027709 0.299110 0 127 127
0.146500 0.007659 0.642586 0 127 127
0.449636 0.033944 -0.529504 153 0 76
0.063514 -0.036953 0.330901 0 127 127
0.334484 0.009113 -0.162720 153 0 76
0.198520 -0.022207 0.663434 0 127 127
0.451357 0.023624 -0.563560 153 0 76
0.135699 -0.019974 -0.257434 153 0 76
-0.009102 -0.026783 0.493633 0 127 127
0.110879 -0.042827 0.223723 0 127 127
-0.377371 -0.017334 -0.163116 127 0 127
-0.020347 -0.029059 0.225444 0 127 127
-0.109031 0.033944 -0.000421 127 127 0
0.120736 0.004951 0.245461 0 127 127
0.386319 0.016483 -0.280453 153 0 76
0.459789 0.015720 0.430158 0 127 127
-0.754261 -0.017341 -0.314938 127 0 127
-0.465657 0.000645 -0.181500 127 0 127
-0.327367 -0.002001 0.203556 76 153 0
-0.113970 0.015971 -0.072948 153 0 76
0.273878 0.012784 0.250554 0 127 127
-0.271971 0.000669 -0.030226 127 0 127
-0.043261 -0.002001 -0.028044 0 127 127
0.193376 -0.032015 0.208842 0 127 127
-0.360034 0.015971 0.147147 76 153 0
-0.013413 -0.017330 -0.023930 0 127 127
0.436444 -0.036953 0.452739 0 127 127
0.054627 0.016619 -0.565243 153 0 76
0.192491 0.004444 -0.096089 153 0 76
0.000429 -0.010586 -0.026225 0 127 127
0.161258 -0.036953 0.638178 0 127 127
0.003743 0.011011 -0.096223 153 0 76
0.382120 -0.030460 -0.700504 153 0 76
0.012433 -0.036953 0.357165 0 127 127
0.086091 -0.003248 0.453244 0 127 127
0.133683 -0.042827 0.230972 0 127 127
0.369493 0.033944 -0.228726 153 0 76
0.106293 0.021631 -0.607378 153 0 76
0.292803 0.029065 0.251053 0 127 127
-0.140012 -0.017327 -0.061007 127 0 127
-0.149502 -0.002001 0.102910 76 153 0
-0.046408 -0.010485 0.221137 0 127 127
0.302448 -0.010720 0.254259 0 127 127
0.461171 -0.020390 -0.421996 153 0 76
0.038174 0.016966 0.317796 0 127 127
-0.403818 0.015971 0.161330 76 153 0
-0.052314 -0.020313 0.251832 0 127 127
-0.782138 0.015971 0.340709 76 153 0
-0.005097 -0.036953 0.221836 0 127 127
0.125768 0.002583 -0.545006 153 0 76
0.239165 -0.004564 -0.617433 153 0 76
-0.302829 -0.017300 -0.056567 127 0 127
0.384917 -0.007792 0.541665 0 127 127
0.444861 0.026145 -0.354515 153 0 76
-0.011320 0.023151 -0.350810 153 0 76
0.420526 -0.007951 -0.452662 153 0 76
-0.015152 0.002347 -0.370471 153 0 76
-0.042214 -0.019974 -0.227584 153 0 76
0.331356 0.016870 0.597255 0 127 127
-0.002145 -0.002001 -0.197838 153 0 76
-0.031194 -0.036953 0.403950 0 127 127
-0.503219 -0.017341 -0.226030 127 0 127
0.324612 -0.004313 -0.605479 153 0 76
0.260927 -0.010584 -0.243150 153 0 76
0.084369 0.004526 -0.590081 153 0 76
-0.119238 0.025541 0.034746 127 127 0
0.199480 0.007691 0.305952 0 127 127
-0.410999 0.000642 -0.168080 127 0 127
0.298118 0.033944 -0.250042 153 0 76
0.101398 0.029065 0.227089 0 127 127
0.358506 -0.019974 -0.239347 153 0 76
0.044362 -0.036953 0.172729 0 127 127
0.124718 0.033944 -0.222048 153 0 76
-0.037340 -0.002001 -0.130487 153 0 76
-0.177324 -0.017346 -0.119078 127 0 127
0.407656 -0.017433 -0.227377 153 0 76
-0.567345 0.015971 0.260616 76 153 0
0.317198 0.020635 -0.607847 153 0 76
0.457309 -0.021541 0.419451 0 127 127
0.176472 0.008849 -0.238214 153 0 76
-0.703784 -0.002001 0.297651 76 153 0
-0.658136 0.015971 0.250811 76 153 0
0.059561 0.033944 -0.209266 153 0 76
0.127035 -0.019974 -0.112391 153 0 76
0.142734 -0.019974 -0.116758 153 0 76
0.394083 -0.012000 0.311067 0 127 127
0.283604 -0.042827 0.247026 0 127 127
0.058011 0.016966 0.351328 0 127 127
0.283315 -0.031118 -0.618886 153 0 76
0.206748 -0.021678 0.616235 0 127 127
-0.252493 -0.002001 0.180085 76 153 0
0.116983 0.033944 -0.589784 153 0 76
-0.012686 0.016966 0.305884 0 127 127
-0.025660 -0.034962 0.312263 0 127 127
-0.821903 0.008556 0.359166 76 153 0
-0.548533 -0.017323 -0.199714 127 0 127
-0.634451 0.015971 0.238771 76 153 0
-0.429890 -0.002001 0.158908 76 153 0
-0.035358 -0.017284 0.106301 0 127 127
-0.666774 -0.002001 0.308675 76 153 0
-0.096124 0.000629 -0.085558 127 0 127
0.451780 -0.036953 0.400341 0 127 127
-0.383004 0.015971 0.127017 76 153 0
0.118532 0.016966 0.562067 0 127 127
0.296901 -0.036953 0.656586 0 127 127
0.087889 -0.036475 0.178409 0 127 127
-0.426365 0.015971 0.123407 76 153 0
-0.540999 0.000647 -0.203704 127 0 127
0.091437 -0.019974 -0.226574 153 0 76
0.124618 -0.036953 0.288206 0 127 127
-0.478378 0.000652 -0.168592 127 0 127
-0.114895 0.000630 -0.090452 127 0 127
-0.189444 -0.002001 0.078767 76 153 0
0.133175 0.016966 0.621430 0 127 127
-0.464806 0.015971 0.253477 76 153 0
0.002473 0.000647 -0.009243 0 127 127
-0.065922 -0.018058 0.220979 0 127 127
0.420361 0.008756 -0.436953 153 0 76
0.472713 0.033944 -0.496963 153 0 76
-0.564558 -0.002001 0.203773 76 153 0
-0.216178 0.009813 -0.003588 76 153 0
-0.411486 0.015971 0.113830 76 153 0
-0.084969 0.015971 -0.171652 153 0 76
-0.497988 0.015971 0.210922 76 153 0
-0.247915 -0.017319 0.001833 127 0 127
0.118685 -0.012751 -0.246168 153 0 76
-0.012444 -0.015045 -0.356577 153 0 76
0.435446 -0.011872 -0.588507 153 0 76
-0.015710 0.033944 -0.186322 153 0 76
0.310950 -0.019995 -0.611894 153 0 76
0.366221 0.022369 -0.185299 153 0 76
-0.359865 0.000640 -0.153710 127 0 127
-0.222448 0.015971 0.185537 76 153 0
0.037060 0.016966 0.483496 0 127 127
-0.246291 0.015971 0.063411 76 153 0
0.129888 -0.016516 -0.243650 153 0 76
0.090120 -0.020503 0.496934 0 127 127
-0.323954 0.015971 0.124875 76 153 0
-0.452086 -0.017337 -0.196454 127 0 127
0.259678 0.016966 0.656837 0 127 127
-0.519268 -0.001930 -0.149549 127 0 127
0.077894 -0.036953 0.317200 0 127 127
-0.704185 -0.017335 -0.284015 127 0 127
0.023026 -0.009563 -0.153651 153 0 76
-0.110306 -0.006014 -0.097267 127 0 127
-0.507662 -0.005905 -0.239588 127 0 127
0.295685 -0.020514 0.307601 0 127 127
-0.396611 -0.002001 0.163420 76 153 0
0.407268 -0.017006 0.447650 0 127 127
-0.266761 0.015971 0.199278 76 153 0
-0.007169 -0.002001 -0.237691 153 0 76
0.097339 -0.019974 -0.458451 153 0 76
-0.472337 -0.002001 0.172189 76 153 0
0.041308 -0.019974 -0.302251 153 0 76
-0.046702 -0.017342 -0.063361 127 0 127
-0.272079 0.000647 -0.106942 127 0 127
-0.198621 -0.002001 0.084494 76 153 0
-0.382387 0.005524 0.241172 76 153 0
0.389919 0.016966 0.342217 0 127 127
-0.098931 -0.002001 -0.111566 153 0 76
-0.403595 0.000637 -0.083733 127 0 127
-0.047706 0.015971 -0.206400 153 0 76
0.156607 -0.012056 0.243110 0 127 127
0.357217 0.010342 0.641178 0 127 127
0.336297 0.016966 0.621414 0 127 127
0.214827 -0.025992 0.665625 0 127 127
-0.031362 -0.002001 -0.033076 0 127 127
0.362492 -0.004960 0.349351 0 127 127
-0.624749 -0.006533 -0.219294 127 0 127
0.181896 0.033944 -0.635985 153 0 76
-0.365229 -0.002001 0.094853 76 153 0
-0.021593 -0.017308 0.025189 0 127 127
0.227652 -0.036953 0.619683 0 127 127
0.247403 -0.042827 0.236159 0 127 127
0.202811 -0.009242 0.614871 0 127 127
0.249807 -0.010739 0.225122 0 127 127
0.151175 0.014502 -0.574962 153 0 76
0.042382 -0.017283 0.194737 0 127 127
0.414510 0.033944 -0.528471 153 0 76
-0.000810 0.007396 0.507604 0 127 127
0.352499 -0.020018 -0.309216 153 0 76
-0.156556 0.015971 0.104950 76 153 0
0.029895 -0.017286 0.095037 0 127 127
-0.143965 -0.017315 -0.036146 127 0 127
-0.058558 -0.017320 -0.015954 127 0 127
0.133340 0.011543 0.634383 0 127 127
-0.471668 -0.001680 0.265141 76 153 0
0.142362 -0.036953 0.280453 0 127 127
-0.011155 -0.012890 0.222251 0 127 127
-0.288770 -0.002001 0.164777 76 153 0
0.003895 0.016966 0.213340 0 127 127
0.426311 -0.000419 0.577701 0 127 127
-0.171887 -0.002001 0.141891 76 153 0
0.424660 -0.020260 -0.364364 153 0 76
0.349066 -0.037952 -0.591573 153 0 76
-0.654410 -0.002242 -0.238904 127 0 127
0.123581 0.007561 -0.373015 153 0 76
0.009780 0.033944 -0.296206 153 0 76
0.364175 -0.037966 -0.583253 153 0 76
-0.025146 0.015971 -0.219707 153 0 76
-0.033789 0.015971 -0.052328 76 153 0
-0.728684 0.015971 0.317722 76 153 0
0.318762 -0.038042 -0.618145 153 0 76
0.401739 -0.005695 0.606581 0 127 127
0.273440 0.033944 -0.630210 153 0 76
0.371437 -0.012345 -0.187396 153 0 76
0.203705 0.022892 -0.306522 153 0 76
0.150135 -0.019974 -0.173593 153 0 76
-0.114780 0.000651 -0.041980 127 0 127
0.250924 0.007954 0.299783 0 127 127
-0.052171 0.015971 -0.129059 153 0 76
-0.180961 0.015971 -0.006243 76 153 0
-0.038744 0.000688 0.073443 0 127 127
0.185699 0.033944 -0.305884 153 0 76
0.298314 0.002286 -0.253518 153 0 76
-0.341881 -0.002001 0.144900 76 153 0
-0.159588 -0.017328 -0.072102 127 0 127
0.376042 -0.019987 -0.294158 153 0 76
0.313891 -0.036953 0.626080 0 127 127
0.053731 -0.014819 0.574936 0 127 127
-0.000732 -0.002001 -0.108524 153 0 76
-0.423921 -0.002001 0.229527 76 153 0
0.167776 0.015971 -0.094878 153 0 76
-0.050105 0.029293 -0.275342 153 0 76
-0.002621 0.015971 -0.222847 153 0 76
0.129721 0.008465 -0.243669 153 0 76
0.113147 -0.011394 0.621798 0 127 127
-0.389607 -0.010598 -0.063819 127 0 127
0.190334 -0.042827 0.209428 0 127 127
0.087028 0.033944 -0.144198 153 0 76
0.249267 -0.020398 -0.669086 153 0 76
-0.176192 0.015971 0.093924 76 153 0
-0.008122 0.000681 0.131599 0 127 127
0.476885 0.003138 -0.457294 153 0 76
0.103776 -0.036953 0.582313 0 127 127
0.382382 -0.023269 0.373187 0 127 127
0.047494 0.033944 -0.499906 153 0 76
0.240345 0.027558 -0.297083 153 0 76
0.085267 0.028247 -0.236896 153 0 76
0.332733 -0.019974 -0.199478 153 0 76
-0.685883 -0.002001 0.301819 76 153 0
0.210732 0.006890 0.617614 0 127 127
0.054412 0.033944 -0.155928 153 0 76
0.392355 -0.027498 -0.694986 153 0 76
-0.331693 -0.011909 -0.025526 127 0 127
0.282640 -0.029225 0.666605 0 127 127
0.378902 -0.036953 0.314350 0 127 127
0.039769 0.033944 -0.186290 153 0 76
0.308246 -0.036953 0.650135 0 127 127
-0.177955 0.015971 0.138742 76 153 0
-0.431512 0.015971 0.162848 76 153 0
0.107671 -0.042827 0.211319 0 127 127
0.399998 -0.038362 -0.609846 153 0 76
-0.004189 -0.019974 -0.226188 153 0 76
-0.056027 0.012122 -0.255352 153 0 76
0.107863 -0.019974 -0.559071 153 0 76
0.450458 -0.020396 -0.537577 153 0 76
-0.025667 -0.019974 -0.272094 153 0 76
-0.231748 -0.017302 -0.005673 127 0 127
0.160723 0.003940 -0.329764 153 0 76
-0.049191 0.010053 0.204228 0 127 127
0.146940 0.016966 0.240582 0 127 127
-0.027041 -0.020777 0.359208 0 127 127
0.107193 0.033944 -0.191803 153 0 76
-0.114641 -0.002001 -0.120072 153 0 76
-0.022610 -0.019974 -0.226160 153 0 76
-0.468210 0.000633 -0.211045 127 0 127
0.060211 0.016966 0.535997 0 127 127
-0.378972 -0.017308 -0.102411 127 0 127
0.099740 0.011105 -0.450456 153 0 76
0.252500 -0.010566 0.252402 0 127 127
0.423765 -0.009549 -0.604087 153 0 76
-0.864521 -0.002001 0.370200 76 153 0
0.183222 -0.036953 0.628540 0 127 127
0.007580 -0.019974 -0.298986 153 0 76
0.143826 -0.019974 -0.196897 153 0 76
0.358936 0.033669 -0.182371 153 0 76
-0.505892 0.000639 -0.210191 127 0 127
-0.176540 0.000671 -0.016220 127 0 127
0.022560 0.015712 -0.526404 153 0 76
0.459135 0.016966 0.484315 0 127 127
0.081475 -0.008064 0.600782 0 127 127
-0.449153 0.000652 -0.158307 127 0 127
-0.150255 0.020417 0.061172 76 153 0
0.401569 -0.006761 -0.199509 153 0 76
0.297861 -0.003510 -0.671843 153 0 76
-0.037353 0.015971 -0.265070 153 0 76
-0.204673 -0.006093 0.058460 127 0 127
0.267831 -0.026579 0.300995 0 127 127
-0.244699 0.000666 -0.052400 127 0 127
-0.018809 -0.036953 0.438912 0 127 127
-0.107074 0.015971 0.043118 127 127 0
0.464327 -0.020398 -0.488750 153 0 76
-0.397016 -0.017329 -0.158399 127 0 127
0.265664 -0.002001 -0.138177 153 0 76
-0.080599 0.000650 0.116504 0 127 127
-0.065455 -0.002001 -0.151327 153 0 76
-0.325598 0.000642 -0.136912 127 0 127
0.124200 0.014608 -0.542354 153 0 76
-0.048083 -0.002664 0.261426 0 127 127
-0.363826 0.015971 0.118208 76 153 0
0.083328 -0.019974 -0.202144 153 0 76
0.167994 0.016966 0.280272 0 127 127
0.059635 0.000704 0.182632 0 127 127
-0.336462 0.000636 -0.155263 127 0 127
-0.354522 -0.002001 0.128789 76 153 0
0.147685 -0.009942 -0.342931 153 0 76
0.052877 0.033944 -0.478338 153 0 76
-0.016010 -0.017299 0.048647 0 127 127
0.400026 0.003538 -0.303375 153 0 76
-0.051147 -0.002001 -0.046518 127 0 127
-0.663999 0.015971 0.296675 76 153 0
0.098165 -0.042827 0.250669 0 127 127
0.382681 -0.020112 -0.340876 153 0 76
0.245817 0.016966 0.253545 0 127 127
-0.155566 0.000676 0.002841 76 153 0
0.015967 0.016227 -0.518418 153 0 76
0.290169 0.033944 -0.655653 153 0 76
-0.389683 0.000646 -0.084470 127 0 127
-0.124530 -0.002001 -0.050895 76 153 0
-0.117332 -0.017330 -0.060334 127 0 127
-0.030798 -0.021900 0.300616 0 127 127
0.222437 -0.019974 -0.163241 153 0 76
0.055911 0.033944 -0.566531 153 0 76
0.104624 0.033944 -0.214894 153 0 76
0.051470 -0.036953 0.492477 0 127 127
0.023606 0.016966 0.406343 0 127 127
0.188177 0.000109 0.234103 0 127 127
0.047676 0.016966 0.248411 0 127 127
-0.542626 0.000638 -0.225288 127 0 127
-0.184373 0.000661 -0.042052 127 0 127
0.224615 -0.042827 0.234584 0 127 127
-0.514189 0.014249 0.276556 76 153 0
-0.487725 -0.017336 -0.208527 127 0 127
-0.148823 -0.002001 0.020774 127 0 127
0.196194 0.000198 -0.653299 153 0 76
0.038511 0.033944 -0.202544 153 0 76
0.432077 -0.036953 0.392619 0 127 127
0.449510 -0.027207 0.387503 0 127 127
0.408447 -0.027007 -0.670298 153 0 76
0.019993 0.015971 -0.234535 153 0 76
-0.307485 0.000638 -0.021555 127 0 127
0.239069 0.033944 -0.665236 153 0 76
0.395898 0.020794 -0.197229 153 0 76
-0.054778 -0.019974 -0.210503 153 0 76
-0.346200 -0.002001 0.211336 76 153 0
0.446730 -0.020438 -0.559013 153 0 76
0.415279 0.009593 -0.205020 153 0 76
-0.128550 0.015971 0.057191 127 127 0
-0.184354 -0.017318 0.042675 127 0 127
-0.131878 -0.002001 0.153092 76 153 0
-0.114971 0.015971 -0.120704 153 0 76
0.268805 -0.019974 -0.279464 153 0 76
-0.050398 -0.002001 -0.104158 153 0 76
0.249276 0.028020 -0.242023 153 0 76
-0.030083 -0.019974 -0.314354 153 0 76
-0.046540 -0.014495 0.264923 0 127 127
-0.407388 -0.017323 -0.149463 127 0 127
-0.774028 0.010371 0.303018 76 153 0
0.198712 0.033944 -0.282433 153 0 76
-0.228835 -0.002001 0.157801 76 153 0
0.173416 0.033944 -0.623176 153 0 76
-0.067765 0.000627 0.166912 0 127 127
0.041579 -0.009920 0.563616 0 127 127
-0.019204 -0.004010 -0.335988 153 0 76
0.236172 0.001964 0.241837 0 127 127
0.191420 0.033944 -0.208776 153 0 76
0.212123 0.019199 -0.123352 153 0 76
-0.151716 0.015971 -0.030649 76 153 0
0.154933 0.015616 -0.240727 153 0 76
-0.243667 -0.017326 -0.096614 127 0 127
0.390615 0.023628 -0.552483 153 0 76
-0.121024 0.005589 -0.127787 153 0 76
-0.117036 0.033944 0.047275 127 127 0
0.193962 -0.012514 -0.116052 153 0 76
0.241181 0.029065 0.223983 0 127 127
-0.366765 0.010892 0.236978 76 153 0
0.086829 -0.018775 0.442943 0 127 127
0.079791 -0.019246 0.209745 0 127 127
0.231951 -0.000968 -0.663935 153 0 76
-0.231303 -0.017345 0.039730 127 0 127
-0.057131 0.033944 -0.238623 153 0 76
-0.361632 0.014810 0.076357 76 153 0
-0.220881 -0.002001 0.089176 76 153 0
-0.070473 -0.017298 0.029726 127 0 127
0.411691 -0.027216 -0.582070 153 0 76
0.371669 -0.019975 -0.240706 153 0 76
0.028934 -0.036953 0.524511 0 127 127
-0.289257 -0.002001 0.069138 76 153 0
-0.083610 -0.002001 -0.057822 127 0 127
-0.065689 -0.008343 0.172597 0 127 127
0.032572 -0.019974 -0.449833 153 0 76
0.204154 0.024398 -0.608443 153 0 76
0.085653 -0.026199 0.459347 0 127 127
0.422565 -0.036953 0.546566 0 127 127
-0.230276 -0.017332 -0.105178 127 0 127
0.452544 -0.023129 0.521464 0 127 127
0.078539 -0.038736 0.206144 0 127 127
-0.078474 -0.002001 0.135846 0 127 127
0.005806 -0.017302 0.178344 0 127 127
-0.372627 -0.017342 -0.057144 127 0 127
0.036663 -0.036953 0.396015 0 127 127
-0.145133 0.015971 0.103869 76 153 0
0.027890 -0.036953 0.470273 0 127 127
-0.158788 0.015971 0.129219 76 153 0
-0.614833 0.000639 -0.225455 127 0 127
-0.594711 0.001121 0.298173 76 153 0
0.261852 0.033944 -0.158546 153 0 76
-0.128503 -0.017346 -0.102716 127 0 127
-0.384562 -0.002001 0.092755 76 153 0
-0.624505 0.015971 0.276161 76 153 0
-0.020561 0.033944 -0.222481 153 0 76
0.399767 -0.036953 0.402251 0 127 127
0.008709 0.000681 0.143662 0 127 127
0.023312 0.016966 0.268443 0 127 127
0.065148 -0.036953 0.357700 0 127 127
-0.266651 0.015971 0.159129 76 153 0
0.134630 -0.009103 0.235931 0 127 127
0.042324 -0.019974 -0.183740 153 0 76
-0.067181 0.007889 0.115548 76 153 0
-0.024775 -0.019974 -0.202812 153 0 76
0.221334 -0.005215 0.239159 0 127 127
-0.286624 0.000650 -0.105308 127 0 127
-0.091085 0.015971 0.108353 76 153 0
0.432023 0.033944 -0.541671 153 0 76
0.001336 0.033944 -0.470766 153 0 76
-0.007275 -0.019974 -0.403177 153 0 76
0.053142 -0.036953 0.243483 0 127 127
-0.264300 -0.002001 0.133561 76 153 0
-0.694702 0.015971 0.281879 76 153 0
0.450734 -0.020289 -0.421700 153 0 76
-0.736157 -0.002001 0.306886 76 153 0
-0.259555 -0.017341 -0.137605 127 0 127
-0.544841 0.015971 0.271248 76 153 0
-0.071220 0.015971 -0.120504 153 0 76
0.429791 0.004797 0.348429 0 127 127
-0.299126 0.015971 0.111616 76 153 0
0.370267 -0.036953 0.609635 0 127 127
-0.660430 -0.002001 0.278032 76 153 0
-0.015801 0.015971 -0.040694 76 153 0
-0.047352 -0.036953 0.237961 0 127 127
-0.115350 -0.017326 0.096101 127 0 127
-0.027575 0.015971 -0.133529 153 0 76
-0.867504 0.006345 0.354394 76 153 0
-0.565763 0.000633 -0.245613 127 0 127
0.184686 -0.019974 -0.277030 153 0 76
0.397368 -0.004420 0.404051 0 127 127
-0.062571 0.015971 0.090937 76 153 0
0.316903 -0.029867 -0.666754 153 0 76
0.170618 0.013340 0.242632 0 127 127
0.176603 0.030392 -0.109073 153 0 76
-0.300267 -0.002001 0.146470 76 153 0
0.053988 0.033944 -0.449542 153 0 76
-0.763867 0.015971 0.325611 76 153 0
-0.109672 -0.017290 0.063289 127 0 127
0.242422 -0.018896 -0.241359 153 0 76
-0.359060 0.015971 0.191896 76 153 0
0.126435 -0.036953 0.270906 0 127 127
0.378928 0.033502 -0.190408 153 0 76
0.357686 -0.038076 -0.602693 153 0 76
0.427746 0.016966 0.544898 0 127 127
0.018579 0.000693 0.137227 0 127 127
-0.002004 -0.036953 0.271050 0 127 127
0.220989 -0.029168 0.619205 0 127 127
0.262937 -0.032465 0.668666 0 127 127
0.419467 0.016966 0.335683 0 127 127
0.281209 -0.002001 -0.140818 153 0 76
0.247311 -0.020357 -0.655605 153 0 76
0.097293 -0.019974 -0.356739 153 0 76
-0.520500 -0.017321 -0.184585 127 0 127
-0.136542 0.015971 0.018567 76 153 0
0.461716 0.008431 0.439072 0 127 127
-0.173209 0.015933 -0.027204 76 153 0
0.014447 0.033944 -0.249458 153 0 76
0.364748 0.016966 0.307625 0 127 127
0.313034 -0.036953 0.267470 0 127 127
0.158850 0.013106 -0.636952 153 0 76
0.193311 0.029065 0.212850 0 127 127
0.104294 0.008879 -0.419570 153 0 76
0.007946 0.016966 0.334409 0 127 127
-0.026555 0.000670 0.034161 0 127 127
0.415662 -0.025301 0.329798 0 127 127
0.181737 -0.019974 -0.128509 153 0 76
0.178846 0.009965 0.314751 0 127 127
-0.021429 0.000677 0.052675 0 127 127
-0.218425 0.000650 -0.081603 127 0 127
0.166290 -0.019974 -0.229253 153 0 76
0.209169 -0.001504 0.236964 0 127 127
-0.440506 0.000655 -0.148085 127 0 127
0.070429 -0.019974 -0.172043 153 0 76
-0.076863 0.015971 -0.138585 153 0 76
0.053874 -0.019974 -0.481659 153 0 76
0.205809 0.007931 0.243977 0 127 127
0.288071 0.033944 -0.619443 153 0 76
-0.003220 0.016966 0.276890 0 127 127
0.425771 -0.020300 -0.564496 153 0 76
-0.033596 -0.017324 -0.016039 0 127 127
0.199527 0.033944 -0.146296 153 0 76
-0.248574 -0.011111 -0.146792 127 0 127
0.383643 0.033944 -0.338440 153 0 76
0.057431 -0.036953 0.191595 0 127 127
0.170533 -0.009686 -0.590816 153 0 76
-0.196759 0.015971 0.171432 76 153 0
0.155080 0.033944 -0.606921 153 0 76
-0.478853 0.000627 -0.227752 127 0 127
0.112162 0.016966 0.287450 0 127 127
0.349614 -0.000910 0.646209 0 127 127
0.087483 0.016966 0.261006 0 127 127
-0.277819 -0.002001 0.138251 76 153 0
-0.277907 0.015971 0.120747 76 153 0
0.229777 0.019372 -0.240135 153 0 76
0.085671 -0.032617 0.604673 0 127 127
-0.235170 -0.002001 0.029538 127 0 127
0.106824 0.009808 -0.409716 153 0 76
0.351016 -0.024706 0.337416 0 127 127
0.034331 -0.036953 0.449895 0 127 127
0.295801 0.033944 -0.285783 153 0 76
-0.251194 0.000657 -0.077044 127 0 127
0.300590 -0.034410 0.309299 0 127 127
-0.000846 0.033944 -0.411946 153 0 76
