ply
format ascii 1.0
element vertex 617
property float x
property float y
property float z
property float nx
property float ny
property float nz
property uchar red
property uchar green
property uchar blue
property float opacity
end_header
0.239533 -0.009447 0.438571 -0.745658 -0.000000 0.666329 255 255 255 1.000000
0.371724 0.014322 0.798246 0.544040 -0.000000 0.839059 204 40 40 1.000000
0.350368 -0.032890 -0.460650 0.000000 1.000000 0.000000 255 255 255 1.000000
-0.020170 -0.000320 0.120573 0.000000 1.000000 0.000000 208 214 224 1.000000
-0.104751 -0.000320 -0.068610 0.000000 -1.000000 -0.000000 206 212 222 1.000000
0.113836 0.001579 -0.466407 0.977830 -0.000000 0.209399 204 40 40 1.000000
-0.091982 -0.016605 0.165232 0.000000 1.000000 0.000000 255 255 255 1.000000
-0.693917 -0.016605 -0.516010 0.000000 1.000000 0.000000 255 255 255 1.000000
-0.053608 -0.032890 0.433403 0.000000 -1.000000 -0.000000 204 40 40 1.000000
-0.263341 0.012708 0.089707 0.000000 -1.000000 -0.000000 255 255 255 1.000000
-0.029683 -0.032890 0.389718 0.000000 -1.000000 -0.000000 204 40 40 1.000000
-0.827159 0.012708 0.495152 0.000000 1.000000 0.000000 204 210 220 1.000000
0.243483 0.019606 0.514249 -0.716973 -0.000000 0.697101 204 40 40 1.000000
0.061424 0.015430 -0.228364 -0.549248 0.000000 -0.835660 255 255 255 1.000000
0.294191 -0.016499 0.468143 -0.722224 -0.000000 0.691659 255 255 255 1.000000
0.167628 -0.014931 -0.383945 -0.202973 -0.000000 0.979184 255 255 255 1.000000
-0.530268 -0.000320 0.262856 0.000000 -1.000000 -0.000000 204 210 220 1.000000
0.428135 -0.032890 -0.503949 0.000000 1.000000 0.000000 255 255 255 1.000000
0.172983 -0.006198 0.705433 -0.760297 -0.000000 0.649576 255 255 255 1.000000
-0.656553 -0.000320 -0.498118 0.000000 -1.000000 -0.000000 255 255 255 1.000000
0.189302 -0.032890 0.426216 0.000000 1.000000 0.000000 255 255 255 1.000000
-0.590830 0.012708 0.349086 0.000000 -1.000000 -0.000000 255 255 255 1.000000
0.053813 0.032250 0.355814 0.000000 1.000000 0.000000 204 40 40 1.000000
-0.305446 -0.000320 -0.000507 0.000000 -1.000000 -0.000000 207 213 223 1.000000
-0.064496 -0.016605 0.094460 0.000000 -1.000000 -0.000000 206 212 222 1.000000
0.504005 0.005844 -0.561688 0.679485 -0.000000 0.733689 204 40 40 1.000000
0.306612 0.019647 -0.459618 -0.602456 0.000000 -0.798152 204 40 40 1.000000
-0.252085 0.012708 0.042309 0.000000 1.000000 0.000000 201 207 217 1.000000
-0.002751 -0.000320 0.236744 0.000000 -1.000000 -0.000000 255 255 255 1.000000
0.323399 0.032250 0.812428 0.000000 1.000000 0.000000 204 40 40 1.000000
-0.068324 -0.000320 -0.124985 0.000000 -1.000000 -0.000000 206 212 222 1.000000
0.199526 0.019097 0.793018 0.545990 0.000000 -0.837791 255 255 255 1.000000
-0.029892 0.012985 -0.318885 0.773735 0.000000 -0.633509 255 255 255 1.000000
-0.013350 0.012708 -0.220613 0.000000 1.000000 0.000000 200 206 216 1.000000
-0.373025 -0.000320 -0.257903 0.000000 1.000000 0.000000 202 208 218 1.000000
-0.338043 0.012708 0.096300 0.000000 -1.000000 -0.000000 255 255 255 1.000000
-0.157144 -0.014815 0.186554 -0.930432 -0.000000 0.366464 202 208 218 1.000000
-0.305268 -0.016605 -0.055988 0.000000 1.000000 0.000000 255 255 255 1.000000
0.050312 -0.032890 0.274012 0.000000 1.000000 0.000000 255 255 255 1.000000
-0.165234 -0.000320 0.085281 0.000000 -1.000000 -0.000000 255 255 255 1.000000
0.143649 -0.032672 0.416544 -0.196867 -0.000000 0.980430 204 40 40 1.000000
0.248076 -0.032890 -0.660701 0.000000 -1.000000 -0.000000 204 40 40 1.000000
0.229094 0.019378 -0.621415 -0.771291 0.000000 -0.636482 255 255 255 1.000000
-0.395211 -0.000320 -0.306291 0.000000 -1.000000 -0.000000 255 255 255 1.000000
-0.132275 -0.000320 -0.026085 0.000000 -1.000000 -0.000000 255 255 255 1.000000
0.269970 0.032250 -0.373144 0.000000 -1.000000 -0.000000 255 255 255 1.000000
-0.326115 -0.000320 0.122482 0.000000 1.000000 0.000000 255 255 255 1.000000
-0.411810 -0.000320 -0.277218 0.000000 -1.000000 -0.000000 255 255 255 1.000000
-0.059559 -0.000320 -0.167132 0.000000 1.000000 0.000000 255 255 255 1.000000
-0.157630 -0.016605 0.140338 0.000000 -1.000000 -0.000000 206 212 222 1.000000
-0.296320 -0.016605 -0.182488 0.000000 1.000000 0.000000 255 255 255 1.000000
0.379719 0.020406 0.657959 -0.866131 -0.000000 0.499816 204 40 40 1.000000
-0.558034 -0.000320 0.267787 0.000000 1.000000 0.000000 255 255 255 1.000000
0.424582 0.008427 0.639831 -0.825171 -0.000000 0.564883 255 255 255 1.000000
0.387652 0.032250 -0.470785 0.000000 -1.000000 -0.000000 255 255 255 1.000000
0.136837 -0.000945 0.333086 0.682871 0.000000 -0.730539 204 40 40 1.000000
-0.461837 -0.000320 -0.361666 0.000000 -1.000000 -0.000000 255 255 255 1.000000
-0.582960 0.012708 0.289505 0.000000 -1.000000 -0.000000 255 255 255 1.000000
-0.033488 -0.000320 -0.093363 0.000000 1.000000 0.000000 255 255 255 1.000000
0.309433 -0.009552 0.494839 1.000000 0.000000 0.000000 204 40 40 1.000000
-0.508443 -0.000320 0.252092 0.000000 1.000000 0.000000 255 255 255 1.000000
0.135345 0.016044 -0.503598 0.782541 -0.000000 0.622599 204 40 40 1.000000
-0.731686 -0.016605 -0.565751 0.000000 -1.000000 -0.000000 202 208 218 1.000000
-0.125324 -0.000320 0.251926 0.000000 -1.000000 -0.000000 255 255 255 1.000000
-0.482979 0.012708 0.245791 0.000000 -1.000000 -0.000000 255 255 255 1.000000
0.122657 -0.030691 0.639684 -0.825668 -0.000000 0.564157 255 255 255 1.000000
0.116764 0.014587 0.314653 -0.670087 -0.000000 0.742283 255 255 255 1.000000
-0.013041 -0.015190 -0.407988 0.795558 -0.000000 0.605878 255 255 255 1.000000
-0.008582 -0.000320 -0.193402 0.000000 1.000000 0.000000 255 255 255 1.000000
0.060790 0.032250 -0.487701 0.000000 1.000000 0.000000 204 40 40 1.000000
0.171853 -0.010859 0.768384 -0.759381 -0.000000 0.650647 204 40 40 1.000000
0.126302 -0.019643 0.323359 -0.676170 -0.000000 0.736746 255 255 255 1.000000
0.019375 -0.018196 -0.258713 0.774783 0.000000 -0.632227 255 255 255 1.000000
-0.511172 0.012708 0.308552 0.000000 -1.000000 -0.000000 255 255 255 1.000000
-0.187097 -0.016170 -0.031268 0.611363 -0.000000 0.791350 255 255 255 1.000000
0.339282 0.032250 -0.744040 0.000000 -1.000000 -0.000000 255 255 255 1.000000
0.203611 -0.032890 -0.322119 0.000000 -1.000000 -0.000000 204 40 40 1.000000
-0.067033 -0.000320 -0.199552 0.000000 1.000000 0.000000 255 255 255 1.000000
-0.487274 -0.016605 -0.324842 0.000000 1.000000 0.000000 255 255 255 1.000000
0.140241 0.031692 0.728211 -0.792183 -0.000000 0.610284 204 40 40 1.000000
-0.225504 -0.016605 0.011837 0.000000 -1.000000 -0.000000 208 214 224 1.000000
-0.174955 -0.016605 -0.095931 0.000000 1.000000 0.000000 255 255 255 1.000000
-0.585044 -0.016605 -0.395856 0.000000 1.000000 0.000000 255 255 255 1.000000
0.103253 0.013758 0.678905 -0.807032 -0.000000 0.590507 204 40 40 1.000000
-0.325651 -0.000320 -0.210317 0.000000 1.000000 0.000000 202 208 218 1.000000
0.354327 0.030678 0.628253 -0.716973 -0.000000 0.697101 204 40 40 1.000000
0.116740 0.032250 0.638327 0.000000 -1.000000 -0.000000 255 255 255 1.000000
-0.849124 0.012708 0.500527 0.000000 1.000000 0.000000 204 210 220 1.000000
-0.686426 -0.016605 -0.551750 0.000000 -1.000000 -0.000000 203 209 219 1.000000
0.201181 0.032250 -0.606721 0.000000 1.000000 0.000000 204 40 40 1.000000
-0.084030 -0.000320 0.286034 0.000000 -1.000000 -0.000000 255 255 255 1.000000
-0.288136 -0.000320 0.150793 0.000000 1.000000 0.000000 255 255 255 1.000000
0.070532 0.025443 0.633234 -0.820138 -0.000000 0.572166 204 40 40 1.000000
-0.365514 -0.016605 -0.182974 0.000000 1.000000 0.000000 255 255 255 1.000000
-0.360207 -0.000320 0.178178 0.000000 -1.000000 -0.000000 205 211 221 1.000000
0.214191 0.014867 -0.390346 -0.380609 0.000000 -0.924736 204 40 40 1.000000
-0.343822 -0.000320 -0.144833 0.000000 -1.000000 -0.000000 255 255 255 1.000000
-0.549966 -0.016605 -0.375069 0.000000 1.000000 0.000000 255 255 255 1.000000
-0.076287 -0.000320 0.014147 0.000000 1.000000 0.000000 197 203 213 1.000000
-0.408516 -0.001371 -0.334871 0.634600 0.000000 -0.772841 204 210 220 1.000000
-0.279168 -0.000320 -0.204371 0.000000 -1.000000 -0.000000 255 255 255 1.000000
-0.634938 -0.000320 -0.449036 0.000000 -1.000000 -0.000000 255 255 255 1.000000
-0.452646 -0.016605 -0.311429 0.000000 -1.000000 -0.000000 198 204 214 1.000000
-0.663783 -0.016605 -0.523346 0.000000 -1.000000 -0.000000 195 201 211 1.000000
-0.438093 -0.000320 -0.238388 0.000000 -1.000000 -0.000000 255 255 255 1.000000
0.203413 0.012427 -0.653372 0.716155 -0.000000 0.697941 255 255 255 1.000000
-0.576775 -0.000320 0.343554 0.000000 -1.000000 -0.000000 202 208 218 1.000000
0.205049 0.032250 -0.371790 0.000000 -1.000000 -0.000000 255 255 255 1.000000
0.038548 -0.032890 0.351599 0.000000 -1.000000 -0.000000 204 40 40 1.000000
-0.398421 -0.016605 -0.269138 0.000000 -1.000000 -0.000000 200 206 216 1.000000
-0.016281 -0.016605 0.249399 0.000000 1.000000 0.000000 255 255 255 1.000000
0.414540 0.005685 -0.680127 0.530884 0.000000 -0.847444 255 255 255 1.000000
0.335519 -0.006540 -0.696370 -0.242979 0.000000 -0.970032 255 255 255 1.000000
-0.090034 0.012708 -0.203232 0.000000 -1.000000 -0.000000 255 255 255 1.000000
0.116561 -0.032890 0.372224 0.000000 -1.000000 -0.000000 204 40 40 1.000000
-0.231732 -0.016605 -0.055832 0.000000 -1.000000 -0.000000 206 212 222 1.000000
-0.063555 0.021641 0.418511 0.873948 0.000000 -0.486019 255 255 255 1.000000
-0.453668 0.012708 0.151368 0.000000 1.000000 0.000000 201 207 217 1.000000
0.420236 0.032250 0.702505 0.000000 -1.000000 -0.000000 255 255 255 1.000000
0.344664 -0.004596 -0.488339 -0.602456 0.000000 -0.798152 204 40 40 1.000000
0.178845 0.017301 0.712279 -0.752639 -0.000000 0.658433 255 255 255 1.000000
0.372195 0.032250 -0.711533 0.000000 -1.000000 -0.000000 255 255 255 1.000000
-0.686050 -0.000320 0.387180 0.000000 -1.000000 -0.000000 191 197 207 1.000000
-0.270454 -0.000613 -0.006862 0.795823 0.000000 -0.605529 255 255 255 1.000000
-0.168971 -0.026255 -0.051001 0.000000 -1.000000 -0.000000 206 212 222 1.000000
-0.138610 -0.016605 0.090006 0.000000 1.000000 0.000000 255 255 255 1.000000
0.209885 0.032250 0.436003 0.000000 1.000000 0.000000 204 40 40 1.000000
0.267775 0.007879 0.443345 -0.278555 0.000000 -0.960420 204 40 40 1.000000
-0.535604 -0.016605 -0.392300 0.000000 -1.000000 -0.000000 200 206 216 1.000000
0.031500 0.032250 -0.426664 0.000000 1.000000 0.000000 204 40 40 1.000000
-0.258045 -0.016605 -0.030527 0.000000 -1.000000 -0.000000 206 212 222 1.000000
-0.162287 -0.016605 0.159173 0.000000 1.000000 0.000000 255 255 255 1.000000
0.019264 -0.032890 0.551268 0.000000 1.000000 0.000000 255 255 255 1.000000
0.044442 0.032250 -0.261092 0.000000 -1.000000 -0.000000 255 255 255 1.000000
-0.165691 -0.000320 0.133094 0.000000 1.000000 0.000000 202 208 218 1.000000
-0.060227 0.012708 -0.039363 0.000000 1.000000 0.000000 207 213 223 1.000000
0.261898 -0.014408 -0.366174 -0.604170 0.000000 -0.796855 255 255 255 1.000000
-0.151406 0.005676 -0.163166 -0.825317 0.000000 -0.564669 208 214 224 1.000000
-0.039131 -0.000320 0.097790 0.000000 1.000000 0.000000 195 201 211 1.000000
0.116787 0.025661 -0.564485 -0.716155 0.000000 -0.697941 204 40 40 1.000000
-0.496159 0.012708 0.219772 0.000000 1.000000 0.000000 201 207 217 1.000000
-0.155310 0.012708 -0.136935 0.000000 -1.000000 -0.000000 255 255 255 1.000000
0.172804 0.032250 0.390454 0.000000 -1.000000 -0.000000 255 255 255 1.000000
-0.046811 -0.016605 0.230145 0.000000 1.000000 0.000000 255 255 255 1.000000
0.329800 0.029783 0.540499 -0.716973 -0.000000 0.697101 255 255 255 1.000000
-0.022053 0.032250 -0.374780 0.000000 1.000000 0.000000 204 40 40 1.000000
-0.619522 0.012708 0.316688 0.000000 -1.000000 -0.000000 255 255 255 1.000000
-0.400570 -0.000320 -0.236536 0.000000 -1.000000 -0.000000 255 255 255 1.000000
0.139363 0.032250 -0.557197 0.000000 -1.000000 -0.000000 255 255 255 1.000000
-0.561143 -0.000320 0.298019 0.000000 -1.000000 -0.000000 201 207 217 1.000000
0.099436 -0.024621 -0.253348 -0.549248 0.000000 -0.835660 255 255 255 1.000000
0.217686 -0.015316 0.748691 0.522192 0.000000 -0.852828 204 40 40 1.000000
-0.274339 -0.016605 -0.164570 0.000000 -1.000000 -0.000000 206 212 222 1.000000
0.015272 -0.032890 0.369992 0.000000 1.000000 0.000000 255 255 255 1.000000
-0.050440 0.014377 -0.358879 0.795558 -0.000000 0.605878 255 255 255 1.000000
-0.142023 -0.026255 -0.029115 0.000000 -1.000000 -0.000000 206 212 222 1.000000
0.236722 0.032250 -0.382780 0.000000 -1.000000 -0.000000 255 255 255 1.000000
-0.472199 -0.016605 -0.305921 0.000000 1.000000 0.000000 255 255 255 1.000000
-0.782395 -0.000320 -0.621054 0.000000 1.000000 0.000000 205 211 221 1.000000
-0.411375 -0.000320 0.250452 0.000000 1.000000 0.000000 255 255 255 1.000000
-0.081751 -0.000320 -0.234830 0.000000 -1.000000 -0.000000 204 210 220 1.000000
-0.461199 -0.000320 -0.291905 0.000000 1.000000 0.000000 202 208 218 1.000000
0.411331 -0.015740 -0.486578 -0.628976 0.000000 -0.777425 255 255 255 1.000000
-0.039901 -0.000320 0.187120 0.000000 1.000000 0.000000 206 212 222 1.000000
-0.105474 0.012708 0.008042 0.000000 -1.000000 -0.000000 255 255 255 1.000000
0.101987 0.032250 -0.369792 0.000000 1.000000 0.000000 204 40 40 1.000000
-0.274540 -0.000320 -0.071638 0.000000 1.000000 0.000000 203 209 219 1.000000
0.273743 -0.032890 0.524095 0.000000 1.000000 0.000000 255 255 255 1.000000
-0.716305 0.012708 0.421758 0.000000 -1.000000 -0.000000 255 255 255 1.000000
-0.627405 -0.016605 -0.482812 0.000000 -1.000000 -0.000000 200 206 216 1.000000
-0.318758 0.012708 0.028154 0.000000 1.000000 0.000000 203 209 219 1.000000
0.079549 -0.012403 0.568705 -0.881636 -0.000000 0.471930 255 255 255 1.000000
0.133340 0.032250 0.332153 0.000000 -1.000000 -0.000000 255 255 255 1.000000
-0.016254 -0.016605 0.185484 0.000000 -1.000000 -0.000000 206 212 222 1.000000
-0.138895 -0.000320 0.107503 0.000000 1.000000 0.000000 210 216 226 1.000000
-0.616807 0.012708 0.367223 0.000000 1.000000 0.000000 196 202 212 1.000000
0.271143 -0.030077 0.444076 0.722224 0.000000 -0.691659 204 40 40 1.000000
0.278529 -0.032890 -0.379257 0.000000 -1.000000 -0.000000 204 40 40 1.000000
-0.189821 -0.000320 0.034144 0.000000 -1.000000 -0.000000 255 255 255 1.000000
0.136924 0.013437 0.659894 0.807113 0.000000 -0.590397 204 40 40 1.000000
-0.071166 -0.016605 0.138790 0.000000 1.000000 0.000000 255 255 255 1.000000
-0.273917 -0.016605 -0.044599 0.000000 -1.000000 -0.000000 206 212 222 1.000000
0.479909 -0.032890 -0.581072 0.000000 -1.000000 -0.000000 204 40 40 1.000000
-0.358291 -0.000320 -0.207246 0.000000 1.000000 0.000000 202 208 218 1.000000
-0.134617 -0.016605 0.121116 0.000000 -1.000000 -0.000000 206 212 222 1.000000
-0.128390 0.012708 -0.099788 0.000000 1.000000 0.000000 201 207 217 1.000000
-0.163720 -0.016605 0.033601 0.000000 1.000000 0.000000 255 255 255 1.000000
0.221722 -0.032890 0.419114 0.000000 1.000000 0.000000 255 255 255 1.000000
0.405549 0.015920 0.618407 0.716973 0.000000 -0.697101 204 40 40 1.000000
0.095615 -0.032890 -0.375746 0.000000 1.000000 0.000000 255 255 255 1.000000
-0.257890 -0.000320 0.125309 0.000000 -1.000000 -0.000000 206 212 222 1.000000
-0.300440 -0.000320 0.116249 0.000000 1.000000 0.000000 255 255 255 1.000000
-0.457894 -0.000320 0.244600 0.000000 1.000000 0.000000 255 255 255 1.000000
0.109689 0.032250 0.331851 0.000000 -1.000000 -0.000000 255 255 255 1.000000
0.035270 -0.032890 0.291465 0.000000 -1.000000 -0.000000 204 40 40 1.000000
0.268993 -0.012232 -0.719250 -0.636945 0.000000 -0.770909 204 40 40 1.000000
0.384468 -0.032890 0.769797 0.000000 1.000000 0.000000 255 255 255 1.000000
-0.052223 0.012708 -0.247326 0.000000 1.000000 0.000000 198 204 214 1.000000
0.013488 -0.032890 -0.349462 0.000000 -1.000000 -0.000000 204 40 40 1.000000
-0.512534 -0.000320 0.289324 0.000000 -1.000000 -0.000000 204 210 220 1.000000
-0.019383 0.032250 0.410042 0.000000 1.000000 0.000000 204 40 40 1.000000
-0.361057 -0.016605 -0.280530 0.000000 -1.000000 -0.000000 199 205 215 1.000000
0.257499 -0.032890 -0.676131 0.000000 -1.000000 -0.000000 204 40 40 1.000000
0.323261 -0.015184 0.533773 0.716973 0.000000 -0.697101 204 40 40 1.000000
0.402148 -0.028703 -0.531729 -0.602456 0.000000 -0.798152 204 40 40 1.000000
0.445755 0.032250 -0.530902 0.000000 -1.000000 -0.000000 255 255 255 1.000000
-0.135031 -0.016605 0.202620 0.000000 -1.000000 -0.000000 206 212 222 1.000000
-0.361867 -0.016605 -0.129241 0.000000 -1.000000 -0.000000 203 209 219 1.000000
-0.051256 -0.016605 0.051839 0.000000 1.000000 0.000000 255 255 255 1.000000
-0.125431 -0.000320 -0.156250 0.000000 -1.000000 -0.000000 204 210 220 1.000000
0.114133 -0.021041 0.693689 0.802661 0.000000 -0.596435 255 255 255 1.000000
0.310024 -0.032890 -0.686656 0.000000 1.000000 0.000000 255 255 255 1.000000
0.158688 0.012620 0.353878 -0.696781 -0.000000 0.717284 255 255 255 1.000000
-0.515102 0.012366 0.188017 0.671406 -0.000000 0.741089 255 255 255 1.000000
0.435960 -0.032890 -0.542602 0.000000 -1.000000 -0.000000 204 40 40 1.000000
0.282438 0.032250 0.794339 0.000000 1.000000 0.000000 204 40 40 1.000000
0.228498 0.032250 0.481334 0.000000 -1.000000 -0.000000 255 255 255 1.000000
0.133164 -0.006374 0.414578 0.106244 0.000000 -0.994340 255 255 255 1.000000
0.041457 0.032250 -0.234783 0.000000 1.000000 0.000000 204 40 40 1.000000
0.363357 0.032250 -0.740070 0.000000 1.000000 0.000000 204 40 40 1.000000
-0.501569 -0.016605 -0.390535 0.000000 -1.000000 -0.000000 198 204 214 1.000000
0.197401 -0.015530 -0.581596 -0.782541 0.000000 -0.622599 255 255 255 1.000000
-0.540174 -0.016605 -0.359716 0.000000 -1.000000 -0.000000 199 205 215 1.000000
-0.283862 -0.016605 -0.080801 0.000000 1.000000 0.000000 255 255 255 1.000000
0.425009 -0.032890 0.671299 0.000000 1.000000 0.000000 255 255 255 1.000000
0.432856 -0.018269 0.722424 -0.933277 0.000000 -0.359158 255 255 255 1.000000
-0.193536 -0.016605 -0.087948 0.000000 1.000000 0.000000 255 255 255 1.000000
-0.488870 -0.016605 -0.269574 0.000000 -1.000000 -0.000000 193 199 209 1.000000
-0.661133 -0.000320 0.355487 0.000000 1.000000 0.000000 255 255 255 1.000000
-0.166931 -0.000320 0.052355 0.000000 -1.000000 -0.000000 255 255 255 1.000000
-0.030682 0.016482 0.281974 0.697321 -0.000000 0.716759 255 255 255 1.000000
-0.091466 -0.000320 0.082631 0.000000 1.000000 0.000000 203 209 219 1.000000
-0.239978 -0.000320 -0.148412 0.000000 1.000000 0.000000 202 208 218 1.000000
-0.683683 -0.000320 0.360094 0.000000 -1.000000 -0.000000 203 209 219 1.000000
0.103347 -0.032890 -0.490723 0.000000 -1.000000 -0.000000 204 40 40 1.000000
0.144990 -0.032890 -0.319662 0.000000 1.000000 0.000000 255 255 255 1.000000
-0.070773 -0.000320 0.179830 0.000000 -1.000000 -0.000000 255 255 255 1.000000
0.430179 0.005571 0.728972 0.918600 -0.000000 0.395188 204 40 40 1.000000
0.093014 -0.032890 -0.336411 0.000000 -1.000000 -0.000000 204 40 40 1.000000
-0.281091 0.012708 0.130147 0.000000 -1.000000 -0.000000 255 255 255 1.000000
-0.017413 -0.000320 -0.126929 0.000000 -1.000000 -0.000000 206 212 222 1.000000
-0.222041 -0.000320 -0.070452 0.000000 -1.000000 -0.000000 255 255 255 1.000000
0.202232 -0.032890 -0.364974 0.000000 1.000000 0.000000 255 255 255 1.000000
-0.017524 0.032250 0.292808 0.000000 -1.000000 -0.000000 255 255 255 1.000000
0.478635 0.032250 -0.676732 0.000000 -1.000000 -0.000000 255 255 255 1.000000
-0.011258 0.004728 -0.410328 -0.795558 0.000000 -0.605878 204 40 40 1.000000
-0.328035 -0.016605 -0.178575 0.000000 1.000000 0.000000 255 255 255 1.000000
-0.308490 -0.000320 -0.078180 0.000000 -1.000000 -0.000000 255 255 255 1.000000
0.200406 0.032250 -0.631158 0.000000 1.000000 0.000000 204 40 40 1.000000
0.416947 0.015413 -0.491121 0.628976 -0.000000 0.777425 204 40 40 1.000000
0.369649 0.032250 -0.475266 0.000000 -1.000000 -0.000000 255 255 255 1.000000
0.083791 0.032250 -0.365407 0.000000 1.000000 0.000000 204 40 40 1.000000
-0.292712 0.012708 0.002906 0.000000 1.000000 0.000000 204 210 220 1.000000
-0.077023 0.012708 -0.055183 0.000000 -1.000000 -0.000000 255 255 255 1.000000
-0.008440 -0.032890 -0.372168 0.000000 -1.000000 -0.000000 204 40 40 1.000000
0.109497 -0.020557 0.619756 -0.842771 -0.000000 0.538273 255 255 255 1.000000
0.163945 -0.032890 0.728930 0.000000 1.000000 0.000000 255 255 255 1.000000
0.290939 0.015092 0.817364 -0.006608 -0.000000 0.999978 204 40 40 1.000000
0.349118 0.032250 0.792143 0.000000 -1.000000 -0.000000 255 255 255 1.000000
-0.415173 -0.016605 -0.194089 0.000000 1.000000 0.000000 255 255 255 1.000000
-0.416438 -0.000320 0.115292 0.000000 1.000000 0.000000 255 255 255 1.000000
-0.533788 -0.000320 -0.383815 0.000000 1.000000 0.000000 201 207 217 1.000000
-0.702168 -0.000320 0.421283 0.000000 1.000000 0.000000 255 255 255 1.000000
-0.267456 0.012708 0.050149 0.000000 1.000000 0.000000 200 206 216 1.000000
0.135527 -0.032890 -0.522077 0.000000 1.000000 0.000000 255 255 255 1.000000
-0.224562 -0.000320 -0.100801 0.000000 -1.000000 -0.000000 255 255 255 1.000000
-0.170581 0.012708 -0.086963 0.000000 1.000000 0.000000 202 208 218 1.000000
-0.152656 -0.000320 -0.084665 0.000000 1.000000 0.000000 255 255 255 1.000000
-0.407689 -0.000320 0.225248 0.000000 1.000000 0.000000 255 255 255 1.000000
-0.202045 -0.016605 -0.042539 0.000000 1.000000 0.000000 255 255 255 1.000000
-0.388386 0.012708 0.165300 0.000000 1.000000 0.000000 206 212 222 1.000000
-0.669025 -0.016605 -0.488611 0.000000 1.000000 0.000000 255 255 255 1.000000
-0.536705 -0.002804 -0.441677 0.619177 0.000000 -0.785252 201 207 217 1.000000
0.013004 0.012708 -0.222195 0.000000 1.000000 0.000000 200 206 216 1.000000
0.345816 -0.012351 0.810064 0.267672 -0.000000 0.963510 204 40 40 1.000000
-0.309547 0.012708 0.071498 0.000000 -1.000000 -0.000000 255 255 255 1.000000
-0.592038 -0.016605 -0.425449 0.000000 -1.000000 -0.000000 201 207 217 1.000000
-0.124191 -0.016605 0.146966 0.000000 1.000000 0.000000 255 255 255 1.000000
0.400870 -0.032890 -0.706322 0.000000 1.000000 0.000000 255 255 255 1.000000
-0.554425 -0.000320 -0.402133 0.000000 -1.000000 -0.000000 255 255 255 1.000000
-0.273870 -0.016605 -0.113090 0.000000 1.000000 0.000000 255 255 255 1.000000
-0.096029 -0.017520 0.358128 -0.883995 -0.000000 0.467497 204 40 40 1.000000
-0.017005 -0.032890 0.498432 0.000000 -1.000000 -0.000000 204 40 40 1.000000
-0.058382 0.032250 0.363407 0.000000 1.000000 0.000000 204 40 40 1.000000
-0.356637 -0.000320 -0.156555 0.000000 1.000000 0.000000 202 208 218 1.000000
-0.029312 -0.000320 -0.287875 0.000000 -1.000000 -0.000000 206 212 222 1.000000
-0.633284 -0.016605 -0.507360 0.000000 1.000000 0.000000 255 255 255 1.000000
0.471372 0.024096 -0.617837 0.926275 0.000000 -0.376849 255 255 255 1.000000
0.375950 -0.023980 0.587964 0.716973 0.000000 -0.697101 204 40 40 1.000000
-0.603958 -0.016605 -0.454223 0.000000 -1.000000 -0.000000 200 206 216 1.000000
0.395971 -0.032890 -0.733458 0.000000 -1.000000 -0.000000 204 40 40 1.000000
-0.133308 -0.000320 0.152989 0.000000 1.000000 0.000000 202 208 218 1.000000
0.236464 -0.032890 0.472759 0.000000 1.000000 0.000000 255 255 255 1.000000
-0.032816 0.032250 -0.347721 0.000000 1.000000 0.000000 204 40 40 1.000000
-0.223159 -0.000320 0.080454 0.000000 1.000000 0.000000 255 255 255 1.000000
-0.029976 -0.000320 -0.185345 0.000000 1.000000 0.000000 255 255 255 1.000000
0.061696 -0.017031 0.448240 -0.834792 0.000000 -0.550565 255 255 255 1.000000
0.384991 0.032250 0.627869 0.000000 -1.000000 -0.000000 255 255 255 1.000000
-0.440288 -0.016605 -0.218156 0.000000 1.000000 0.000000 255 255 255 1.000000
-0.367659 -0.000320 0.122121 0.000000 1.000000 0.000000 255 255 255 1.000000
0.123895 -0.015318 -0.489206 -0.782541 0.000000 -0.622599 255 255 255 1.000000
-0.704833 0.012708 0.375277 0.000000 1.000000 0.000000 205 211 221 1.000000
0.437158 0.012391 0.667951 -0.971138 -0.000000 0.238519 255 255 255 1.000000
-0.101339 -0.016344 0.328238 -0.930432 -0.000000 0.366464 200 206 216 1.000000
-0.255995 -0.000320 0.099947 0.000000 1.000000 0.000000 255 255 255 1.000000
0.252453 -0.032552 0.813325 -0.199007 -0.000000 0.979998 204 40 40 1.000000
-0.576441 -0.000320 -0.384899 0.000000 -1.000000 -0.000000 255 255 255 1.000000
0.091161 -0.032890 -0.282016 0.000000 1.000000 0.000000 255 255 255 1.000000
-0.064639 0.004546 0.315010 -0.697321 0.000000 -0.716759 204 40 40 1.000000
-0.154526 -0.016605 0.083541 0.000000 -1.000000 -0.000000 208 214 224 1.000000
0.210418 -0.022283 -0.597957 0.782541 -0.000000 0.622599 204 40 40 1.000000
0.011017 -0.031659 0.241405 -0.697321 0.000000 -0.716759 204 40 40 1.000000
-0.309414 -0.016605 -0.243918 0.000000 1.000000 0.000000 255 255 255 1.000000
-0.195304 0.012708 0.070624 0.000000 -1.000000 -0.000000 255 255 255 1.000000
-0.069285 -0.016605 0.298978 0.000000 1.000000 0.000000 255 255 255 1.000000
-0.733179 -0.000320 0.391756 0.000000 1.000000 0.000000 255 255 255 1.000000
0.239523 -0.032890 0.786511 0.000000 -1.000000 -0.000000 204 40 40 1.000000
0.101001 0.028580 0.606206 -0.853772 -0.000000 0.520648 255 255 255 1.000000
0.467091 -0.027021 -0.531690 0.628976 -0.000000 0.777425 204 40 40 1.000000
-0.683617 -0.000320 -0.564000 0.000000 1.000000 0.000000 204 210 220 1.000000
-0.501307 -0.016605 -0.354903 0.000000 1.000000 0.000000 255 255 255 1.000000
-0.607021 -0.000320 -0.473999 0.000000 -1.000000 -0.000000 255 255 255 1.000000
-0.041636 -0.000320 0.143991 0.000000 1.000000 0.000000 206 212 222 1.000000
0.025501 0.032250 0.539915 0.000000 -1.000000 -0.000000 255 255 255 1.000000
0.421190 -0.016523 -0.743821 0.361852 0.000000 -0.932235 204 40 40 1.000000
-0.559340 -0.000320 0.228903 0.000000 -1.000000 -0.000000 201 207 217 1.000000
0.439196 0.015949 0.696801 -0.995344 0.000000 -0.096386 255 255 255 1.000000
0.342060 0.032250 -0.711422 0.000000 1.000000 0.000000 204 40 40 1.000000
-0.429546 -0.000320 -0.314162 0.000000 1.000000 0.000000 202 208 218 1.000000
0.123934 0.013985 0.414050 -0.015334 0.000000 -0.999882 255 255 255 1.000000
0.462311 -0.032890 -0.552388 0.000000 1.000000 0.000000 255 255 255 1.000000
-0.454647 -0.000320 -0.324131 0.000000 -1.000000 -0.000000 255 255 255 1.000000
0.508608 -0.021107 -0.656007 -0.932869 -0.000000 0.360216 255 255 255 1.000000
-0.356809 -0.000320 0.093200 0.000000 -1.000000 -0.000000 205 211 221 1.000000
-0.082293 0.012708 -0.148715 0.000000 1.000000 0.000000 202 208 218 1.000000
-0.310954 -0.000320 0.019749 0.000000 -1.000000 -0.000000 207 213 223 1.000000
-0.113594 -0.000320 0.182598 0.000000 1.000000 0.000000 203 209 219 1.000000
-0.062078 -0.016605 0.035533 0.000000 -1.000000 -0.000000 206 212 222 1.000000
0.462671 -0.000585 -0.719542 -0.632656 -0.000000 0.774433 255 255 255 1.000000
-0.026100 -0.032890 -0.370287 0.000000 1.000000 0.000000 255 255 255 1.000000
-0.639041 0.012708 0.303900 0.000000 -1.000000 -0.000000 255 255 255 1.000000
0.288866 0.019459 -0.733245 -0.506167 0.000000 -0.862436 204 40 40 1.000000
-0.327630 -0.016605 -0.128940 0.000000 1.000000 0.000000 255 255 255 1.000000
-0.559658 0.012708 0.278644 0.000000 1.000000 0.000000 203 209 219 1.000000
-0.382551 -0.016605 -0.287442 0.000000 1.000000 0.000000 255 255 255 1.000000
0.309470 -0.031732 0.582117 0.716973 0.000000 -0.697101 255 255 255 1.000000
0.491456 0.016434 -0.688373 -0.820721 -0.000000 0.571329 255 255 255 1.000000
-0.455169 -0.000320 0.200907 0.000000 -1.000000 -0.000000 204 210 220 1.000000
-0.520076 0.012708 0.242852 0.000000 -1.000000 -0.000000 255 255 255 1.000000
-0.343955 -0.000320 0.169233 0.000000 -1.000000 -0.000000 206 212 222 1.000000
0.372991 0.011962 -0.455559 0.628976 -0.000000 0.777425 204 40 40 1.000000
0.156464 -0.007933 0.685449 -0.781741 -0.000000 0.623603 255 255 255 1.000000
-0.173494 0.012708 0.064827 0.000000 1.000000 0.000000 203 209 219 1.000000
0.328798 0.032250 0.772910 0.000000 -1.000000 -0.000000 255 255 255 1.000000
-0.035561 -0.000871 0.053125 0.931162 0.000000 -0.364606 204 210 220 1.000000
-0.016924 -0.032890 0.419632 0.000000 1.000000 0.000000 255 255 255 1.000000
-0.768481 0.012708 0.438871 0.000000 -1.000000 -0.000000 255 255 255 1.000000
-0.119803 0.000008 -0.209357 -0.825317 0.000000 -0.564669 208 214 224 1.000000
-0.084198 0.032250 0.357457 0.000000 -1.000000 -0.000000 255 255 255 1.000000
0.254213 0.020937 -0.420066 0.602456 -0.000000 0.798152 255 255 255 1.000000
-0.055029 0.012708 -0.226219 0.000000 1.000000 0.000000 199 205 215 1.000000
-0.228435 -0.011165 0.048362 -0.795823 -0.000000 0.605529 201 207 217 1.000000
0.357579 -0.032890 0.790065 0.000000 -1.000000 -0.000000 204 40 40 1.000000
-0.308638 -0.000320 -0.207940 0.000000 1.000000 0.000000 202 208 218 1.000000
-0.738008 -0.000320 0.437675 0.000000 1.000000 0.000000 255 255 255 1.000000
0.019727 -0.032890 0.486793 0.000000 -1.000000 -0.000000 204 40 40 1.000000
-0.528595 -0.016605 -0.410882 0.000000 -1.000000 -0.000000 200 206 216 1.000000
-0.037298 0.012708 -0.153942 0.000000 -1.000000 -0.000000 255 255 255 1.000000
0.120081 -0.027126 -0.266917 0.549248 -0.000000 0.835660 204 40 40 1.000000
0.030438 0.032250 0.325329 0.000000 1.000000 0.000000 204 40 40 1.000000
-0.741295 -0.016605 -0.592926 0.000000 -1.000000 -0.000000 201 207 217 1.000000
0.426613 0.032250 -0.712130 0.000000 1.000000 0.000000 204 40 40 1.000000
0.133199 0.016522 -0.581325 0.716155 -0.000000 0.697941 255 255 255 1.000000
0.518837 0.012861 -0.604832 0.998779 0.000000 -0.049395 204 40 40 1.000000
-0.181714 -0.016605 -0.061186 0.000000 -1.000000 -0.000000 206 212 222 1.000000
-0.269914 -0.000320 0.075451 0.000000 1.000000 0.000000 255 255 255 1.000000
-0.559826 -0.000320 -0.460007 0.000000 1.000000 0.000000 197 203 213 1.000000
-0.299406 -0.000320 -0.158118 0.000000 -1.000000 -0.000000 255 255 255 1.000000
0.190267 0.032250 -0.341778 0.000000 1.000000 0.000000 204 40 40 1.000000
0.253758 -0.032890 0.501742 0.000000 1.000000 0.000000 255 255 255 1.000000
-0.063105 -0.032890 0.400524 0.000000 1.000000 0.000000 255 255 255 1.000000
-0.150443 0.012708 -0.056438 0.000000 1.000000 0.000000 203 209 219 1.000000
0.248038 0.031077 0.761410 0.238593 0.000000 -0.971120 204 40 40 1.000000
0.089236 0.027373 0.423259 0.473037 -0.000000 0.881043 204 40 40 1.000000
0.058399 -0.032890 0.536332 0.000000 -1.000000 -0.000000 204 40 40 1.000000
0.072411 -0.019340 0.555052 -0.890904 -0.000000 0.454192 255 255 255 1.000000
-0.468973 -0.000320 0.216317 0.000000 -1.000000 -0.000000 204 210 220 1.000000
-0.215512 -0.000320 -0.008009 0.000000 -1.000000 -0.000000 255 255 255 1.000000
0.157986 -0.017120 0.750913 0.787731 0.000000 -0.616020 255 255 255 1.000000
0.231230 -0.005765 0.501647 -0.716973 -0.000000 0.697101 204 40 40 1.000000
0.209404 0.004077 0.405520 0.729103 0.000000 -0.684404 204 40 40 1.000000
-0.408737 0.012708 0.202127 0.000000 1.000000 0.000000 206 212 222 1.000000
0.160551 -0.032890 0.416558 0.000000 -1.000000 -0.000000 204 40 40 1.000000
0.339014 -0.001720 0.549975 0.716973 0.000000 -0.697101 204 40 40 1.000000
-0.117282 -0.016605 0.169838 0.000000 1.000000 0.000000 255 255 255 1.000000
-0.114727 -0.000320 0.266334 0.000000 1.000000 0.000000 204 210 220 1.000000
0.178832 -0.003840 -0.628149 0.716155 -0.000000 0.697941 255 255 255 1.000000
-0.493350 0.012708 0.201974 0.000000 1.000000 0.000000 210 216 226 1.000000
-0.120010 -0.000320 0.234454 0.000000 1.000000 0.000000 203 209 219 1.000000
-0.604356 -0.000320 -0.432062 0.000000 1.000000 0.000000 201 207 217 1.000000
0.047995 -0.032890 0.501716 0.000000 -1.000000 -0.000000 204 40 40 1.000000
0.370103 -0.004032 0.644602 -0.748296 -0.000000 0.663365 204 40 40 1.000000
0.143533 -0.032890 -0.353240 0.000000 -1.000000 -0.000000 204 40 40 1.000000
0.112147 -0.032890 -0.401785 0.000000 -1.000000 -0.000000 204 40 40 1.000000
-0.707757 -0.000320 -0.567652 0.000000 1.000000 0.000000 204 210 220 1.000000
-0.533701 0.012708 0.252759 0.000000 -1.000000 -0.000000 255 255 255 1.000000
-0.793404 0.012708 0.453124 0.000000 1.000000 0.000000 206 212 222 1.000000
-0.254884 -0.016605 -0.084446 0.000000 1.000000 0.000000 255 255 255 1.000000
-0.008598 -0.032890 0.283488 0.000000 1.000000 0.000000 255 255 255 1.000000
-0.210760 -0.000320 0.097862 0.000000 1.000000 0.000000 255 255 255 1.000000
0.272355 -0.007705 0.543944 0.716973 0.000000 -0.697101 255 255 255 1.000000
-0.483696 -0.000320 -0.312481 0.000000 -1.000000 -0.000000 255 255 255 1.000000
0.140482 0.026550 0.415764 -0.175782 -0.000000 0.984429 204 40 40 1.000000
0.011969 -0.032890 0.275239 0.000000 1.000000 0.000000 255 255 255 1.000000
-0.242936 -0.000320 -0.047951 0.000000 -1.000000 -0.000000 255 255 255 1.000000
0.134205 0.032250 -0.295937 0.000000 1.000000 0.000000 204 40 40 1.000000
-0.386286 -0.000320 0.185483 0.000000 1.000000 0.000000 255 255 255 1.000000
-0.152386 0.012708 0.046307 0.000000 1.000000 0.000000 207 213 223 1.000000
-0.364802 0.012708 0.168615 0.000000 1.000000 0.000000 200 206 216 1.000000
0.354325 0.022186 0.731386 0.671395 -0.000000 0.741100 255 255 255 1.000000
0.191569 0.014974 0.386827 -0.717741 -0.000000 0.696310 255 255 255 1.000000
0.470745 0.019148 -0.588654 -0.903986 0.000000 -0.427562 204 40 40 1.000000
-0.092089 -0.000320 -0.156341 0.000000 1.000000 0.000000 255 255 255 1.000000
-0.332627 -0.016605 -0.221437 0.000000 1.000000 0.000000 255 255 255 1.000000
-0.069085 -0.000320 -0.098419 0.000000 1.000000 0.000000 255 255 255 1.000000
-0.144258 -0.000320 0.073476 0.000000 1.000000 0.000000 203 209 219 1.000000
0.013546 0.032250 0.250423 0.000000 -1.000000 -0.000000 255 255 255 1.000000
-0.355300 0.012708 0.149326 0.000000 -1.000000 -0.000000 255 255 255 1.000000
0.506482 0.032250 -0.609561 0.000000 1.000000 0.000000 204 40 40 1.000000
-0.334239 -0.000320 0.185308 0.000000 1.000000 0.000000 255 255 255 1.000000
0.068759 0.032250 -0.407851 0.000000 -1.000000 -0.000000 255 255 255 1.000000
-0.375637 -0.004450 -0.307477 0.638514 0.000000 -0.769610 204 210 220 1.000000
-0.583631 -0.000320 0.320554 0.000000 -1.000000 -0.000000 197 203 213 1.000000
0.181508 0.030692 0.450507 -0.716973 -0.000000 0.697101 204 40 40 1.000000
0.423873 0.032250 -0.504964 0.000000 1.000000 0.000000 204 40 40 1.000000
0.274960 -0.032890 -0.698016 0.000000 1.000000 0.000000 255 255 255 1.000000
-0.083725 0.011695 0.381501 0.881505 0.000000 -0.472175 255 255 255 1.000000
0.305907 0.032250 0.814982 0.000000 -1.000000 -0.000000 255 255 255 1.000000
0.491539 -0.018222 -0.688248 0.821281 0.000000 -0.570524 204 40 40 1.000000
0.014885 0.032250 -0.334197 0.000000 1.000000 0.000000 204 40 40 1.000000
0.037214 -0.022067 0.584102 0.833533 0.000000 -0.552470 255 255 255 1.000000
-0.104070 -0.016605 0.087839 0.000000 1.000000 0.000000 255 255 255 1.000000
0.340911 -0.021408 0.742070 0.571400 -0.000000 0.820672 255 255 255 1.000000
0.257963 0.024344 0.814413 -0.171418 -0.000000 0.985198 204 40 40 1.000000
-0.068352 -0.000320 -0.025764 0.000000 1.000000 0.000000 255 255 255 1.000000
-0.140066 -0.016605 0.024960 0.000000 1.000000 0.000000 255 255 255 1.000000
-0.858581 0.012708 0.520210 0.000000 -1.000000 -0.000000 255 255 255 1.000000
0.123195 0.020839 -0.414098 0.840138 0.000000 -0.542372 204 40 40 1.000000
-0.408882 -0.000320 0.188848 0.000000 1.000000 0.000000 255 255 255 1.000000
0.033755 -0.032890 0.518861 0.000000 1.000000 0.000000 255 255 255 1.000000
0.087777 0.011386 0.583610 0.870983 0.000000 -0.491313 204 40 40 1.000000
0.157774 -0.032890 -0.334917 0.000000 -1.000000 -0.000000 204 40 40 1.000000
-0.210307 -0.016605 0.043979 0.000000 1.000000 0.000000 255 255 255 1.000000
-0.132032 -0.026255 -0.004944 0.000000 -1.000000 -0.000000 206 212 222 1.000000
-0.136316 -0.000320 0.135696 0.000000 1.000000 0.000000 202 208 218 1.000000
-0.167761 -0.016605 0.012237 0.000000 1.000000 0.000000 255 255 255 1.000000
-0.237811 -0.016605 -0.130073 0.000000 1.000000 0.000000 255 255 255 1.000000
-0.286950 0.012708 0.048762 0.000000 -1.000000 -0.000000 255 255 255 1.000000
-0.323517 -0.014192 -0.258082 0.702772 0.000000 -0.711416 201 207 217 1.000000
0.071362 0.017592 0.553043 -0.892237 -0.000000 0.451568 255 255 255 1.000000
-0.356312 0.012708 0.063722 0.000000 1.000000 0.000000 202 208 218 1.000000
0.136706 -0.032890 -0.398478 0.000000 1.000000 0.000000 255 255 255 1.000000
-0.062417 0.012708 -0.286429 0.000000 1.000000 0.000000 200 206 216 1.000000
0.088383 -0.032890 -0.523263 0.000000 -1.000000 -0.000000 204 40 40 1.000000
0.136009 0.032250 -0.381607 0.000000 -1.000000 -0.000000 255 255 255 1.000000
0.105355 -0.032890 0.354264 0.000000 -1.000000 -0.000000 204 40 40 1.000000
-0.039568 -0.032890 -0.359457 0.000000 1.000000 0.000000 255 255 255 1.000000
-0.515476 -0.016605 -0.380928 0.000000 1.000000 0.000000 255 255 255 1.000000
-0.257179 -0.000320 -0.100566 0.000000 1.000000 0.000000 196 202 212 1.000000
0.112890 -0.016894 -0.440759 0.987211 0.000000 -0.159422 204 40 40 1.000000
-0.106666 -0.000320 0.122491 0.000000 -1.000000 -0.000000 255 255 255 1.000000
0.114293 -0.032890 0.663699 0.000000 1.000000 0.000000 255 255 255 1.000000
0.479996 -0.032890 -0.605797 0.000000 1.000000 0.000000 255 255 255 1.000000
-0.436995 -0.000320 0.210976 0.000000 1.000000 0.000000 255 255 255 1.000000
-0.086321 0.012708 -0.244491 0.000000 1.000000 0.000000 198 204 214 1.000000
-0.345092 -0.000320 -0.122216 0.000000 -1.000000 -0.000000 255 255 255 1.000000
-0.317809 -0.000320 -0.176480 0.000000 -1.000000 -0.000000 255 255 255 1.000000
-0.030295 -0.032890 -0.342638 0.000000 -1.000000 -0.000000 204 40 40 1.000000
-0.031192 -0.000320 0.232307 0.000000 -1.000000 -0.000000 255 255 255 1.000000
0.107836 -0.032890 -0.468185 0.000000 1.000000 0.000000 255 255 255 1.000000
0.248827 -0.032607 -0.416001 0.602456 -0.000000 0.798152 255 255 255 1.000000
-0.529299 -0.000320 0.319571 0.000000 -1.000000 -0.000000 204 210 220 1.000000
0.076994 -0.032890 0.340589 0.000000 -1.000000 -0.000000 204 40 40 1.000000
0.442429 0.018088 -0.657898 -0.707150 -0.000000 0.707064 204 40 40 1.000000
0.051216 -0.032890 0.366378 0.000000 -1.000000 -0.000000 204 40 40 1.000000
-0.329005 -0.016605 -0.101809 0.000000 1.000000 0.000000 255 255 255 1.000000
0.317366 -0.032890 0.762135 0.000000 1.000000 0.000000 255 255 255 1.000000
0.096387 -0.032890 -0.433362 0.000000 1.000000 0.000000 255 255 255 1.000000
-0.377672 -0.000320 -0.173746 0.000000 1.000000 0.000000 202 208 218 1.000000
0.420823 -0.032890 0.698963 0.000000 1.000000 0.000000 255 255 255 1.000000
0.024640 -0.032890 -0.282213 0.000000 1.000000 0.000000 255 255 255 1.000000
0.313327 -0.000205 0.816259 0.105285 -0.000000 0.994442 204 40 40 1.000000
0.398319 0.032250 0.684672 0.000000 1.000000 0.000000 204 40 40 1.000000
0.162337 0.032250 -0.329827 0.000000 -1.000000 -0.000000 255 255 255 1.000000
-0.466319 0.012708 0.174546 0.000000 -1.000000 -0.000000 255 255 255 1.000000
-0.604373 0.001304 0.268895 0.671406 -0.000000 0.741089 255 255 255 1.000000
-0.349481 -0.016605 -0.243971 0.000000 1.000000 0.000000 255 255 255 1.000000
-0.094126 -0.000320 -0.123507 0.000000 1.000000 0.000000 255 255 255 1.000000
-0.028946 -0.016605 0.137625 0.000000 1.000000 0.000000 255 255 255 1.000000
-0.354830 -0.016605 -0.111730 0.000000 -1.000000 -0.000000 203 209 219 1.000000
0.383367 0.031624 0.595593 -0.716973 -0.000000 0.697101 255 255 255 1.000000
-0.167703 0.012708 -0.109265 0.000000 1.000000 0.000000 210 216 226 1.000000
0.115476 -0.013685 -0.563140 0.716155 -0.000000 0.697941 255 255 255 1.000000
0.452487 0.032250 -0.557817 0.000000 -1.000000 -0.000000 255 255 255 1.000000
-0.030230 0.005031 -0.385417 -0.795558 0.000000 -0.605878 204 40 40 1.000000
-0.299200 0.012708 0.147110 0.000000 -1.000000 -0.000000 255 255 255 1.000000
0.315571 0.032250 0.568700 0.000000 1.000000 0.000000 204 40 40 1.000000
0.296984 0.028029 -0.679564 0.493012 -0.000000 0.870023 204 40 40 1.000000
-0.031042 -0.000320 0.263561 0.000000 -1.000000 -0.000000 255 255 255 1.000000
-0.183529 -0.016605 -0.012377 0.000000 -1.000000 -0.000000 255 255 255 1.000000
0.184654 -0.032890 0.748797 0.000000 1.000000 0.000000 255 255 255 1.000000
-0.195041 0.012708 -0.066091 0.000000 1.000000 0.000000 207 213 223 1.000000
0.062272 -0.032890 -0.451462 0.000000 1.000000 0.000000 255 255 255 1.000000
-0.274044 -0.000320 0.015093 0.000000 -1.000000 -0.000000 208 214 224 1.000000
-0.139554 -0.000320 -0.101914 0.000000 1.000000 0.000000 255 255 255 1.000000
0.113775 0.032250 -0.532598 0.000000 -1.000000 -0.000000 255 255 255 1.000000
-0.726943 -0.000320 -0.595118 0.000000 1.000000 0.000000 204 210 220 1.000000
-0.116117 -0.016605 -0.000044 0.000000 -1.000000 -0.000000 206 212 222 1.000000
0.065694 0.006546 0.270522 -0.637560 -0.000000 0.770401 255 255 255 1.000000
-0.044532 -0.000320 -0.308804 0.000000 1.000000 0.000000 255 255 255 1.000000
0.384071 0.015702 0.692363 0.892915 -0.000000 0.450225 255 255 255 1.000000
-0.302128 -0.000408 -0.046142 -0.766799 -0.000000 0.641888 201 207 217 1.000000
-0.109441 -0.000320 -0.020257 0.000000 -1.000000 -0.000000 255 255 255 1.000000
0.321468 -0.022353 -0.470831 -0.602456 0.000000 -0.798152 204 40 40 1.000000
0.107706 0.014835 0.616941 0.845096 0.000000 -0.534615 204 40 40 1.000000
0.246000 -0.013709 0.516838 0.716973 0.000000 -0.697101 255 255 255 1.000000
-0.147555 -0.000320 -0.067661 0.000000 -1.000000 -0.000000 255 255 255 1.000000
0.149046 -0.017167 -0.285955 0.549248 -0.000000 0.835660 204 40 40 1.000000
0.418070 -0.017657 0.751878 -0.840584 0.000000 -0.541682 255 255 255 1.000000
-0.006106 -0.032890 -0.290891 0.000000 -1.000000 -0.000000 204 40 40 1.000000
-0.027504 0.012708 -0.205550 0.000000 -1.000000 -0.000000 255 255 255 1.000000
0.230313 -0.029081 0.755343 -0.404140 -0.000000 0.914697 255 255 255 1.000000
-0.133969 0.011950 -0.188653 -0.825317 0.000000 -0.564669 212 218 228 1.000000
-0.007986 -0.015891 0.513346 0.851669 0.000000 -0.524080 255 255 255 1.000000
0.189557 0.009262 -0.312581 0.549248 -0.000000 0.835660 204 40 40 1.000000
0.502454 -0.000581 -0.669837 0.892767 0.000000 -0.450518 204 40 40 1.000000
-0.036282 -0.032890 0.298125 0.000000 1.000000 0.000000 255 255 255 1.000000
-0.090222 0.014848 0.339898 0.697321 -0.000000 0.716759 255 255 255 1.000000
-0.021433 -0.032890 0.317856 0.000000 1.000000 0.000000 255 255 255 1.000000
0.443006 0.032250 -0.680992 0.000000 1.000000 0.000000 204 40 40 1.000000
-0.090806 -0.016605 0.187987 0.000000 1.000000 0.000000 255 255 255 1.000000
-0.475632 -0.000320 0.198578 0.000000 1.000000 0.000000 255 255 255 1.000000
0.159572 -0.015633 0.354752 -0.697349 -0.000000 0.716732 255 255 255 1.000000
-0.052771 -0.000320 -0.047635 0.000000 -1.000000 -0.000000 206 212 222 1.000000
0.227265 -0.017818 -0.619132 -0.782541 0.000000 -0.622599 255 255 255 1.000000
-0.450684 0.012708 0.182846 0.000000 -1.000000 -0.000000 255 255 255 1.000000
0.445608 -0.032890 -0.670668 0.000000 -1.000000 -0.000000 204 40 40 1.000000
-0.622361 0.012708 0.300536 0.000000 -1.000000 -0.000000 255 255 255 1.000000
-0.216760 -0.000320 0.055723 0.000000 1.000000 0.000000 255 255 255 1.000000
0.031308 -0.015780 0.242884 0.618397 0.000000 -0.785866 204 40 40 1.000000
-0.606687 0.012708 0.338745 0.000000 -1.000000 -0.000000 255 255 255 1.000000
-0.086237 -0.016605 0.297943 0.000000 1.000000 0.000000 255 255 255 1.000000
-0.467481 -0.016605 -0.382686 0.000000 1.000000 0.000000 255 255 255 1.000000
-0.482372 -0.000320 -0.394920 0.000000 1.000000 0.000000 204 210 220 1.000000
-0.243160 -0.000320 0.110664 0.000000 1.000000 0.000000 255 255 255 1.000000
-0.246137 0.012708 -0.019774 0.000000 -1.000000 -0.000000 255 255 255 1.000000
0.004720 -0.006749 0.533870 -0.846553 -0.000000 0.532304 204 40 40 1.000000
0.065681 -0.000141 0.541434 0.899692 0.000000 -0.436525 204 40 40 1.000000
0.052250 0.032250 0.568717 0.000000 -1.000000 -0.000000 255 255 255 1.000000
0.377173 0.032250 0.788137 0.000000 -1.000000 -0.000000 255 255 255 1.000000
-0.394929 0.012708 0.132441 0.000000 1.000000 0.000000 198 204 214 1.000000
-0.189529 0.012240 0.009696 -0.660423 0.000421 0.750894 255 255 255 1.000000
0.224097 -0.030002 0.494310 0.716973 0.000000 -0.697101 255 255 255 1.000000
-0.464189 -0.000320 0.276225 0.000000 -1.000000 -0.000000 204 210 220 1.000000
0.400638 0.007893 0.774110 0.729198 -0.000000 0.684303 204 40 40 1.000000
0.393146 -0.032890 0.620654 0.000000 -1.000000 -0.000000 204 40 40 1.000000
-0.252358 0.012708 -0.002095 0.000000 -1.000000 -0.000000 255 255 255 1.000000
0.311526 -0.032890 0.532601 0.000000 1.000000 0.000000 255 255 255 1.000000
-0.144322 -0.000884 0.219107 0.930432 0.000000 -0.366464 255 255 255 1.000000
-0.484814 -0.000320 -0.372801 0.000000 1.000000 0.000000 201 207 217 1.000000
0.383486 -0.005523 -0.753072 0.115170 0.000000 -0.993346 204 40 40 1.000000
-0.080616 -0.000320 -0.273490 0.000000 1.000000 0.000000 255 255 255 1.000000
-0.312122 -0.016605 -0.227306 0.000000 -1.000000 -0.000000 203 209 219 1.000000
0.143584 -0.032890 0.688237 0.000000 1.000000 0.000000 255 255 255 1.000000
-0.471228 -0.000320 0.148652 0.000000 1.000000 0.000000 255 255 255 1.000000
0.452040 -0.032890 -0.654945 0.000000 -1.000000 -0.000000 204 40 40 1.000000
0.316201 -0.005262 -0.689284 0.414878 -0.000000 0.909877 204 40 40 1.000000
-0.239556 -0.016605 -0.166801 0.000000 -1.000000 -0.000000 206 212 222 1.000000
0.018602 0.032250 -0.385118 0.000000 1.000000 0.000000 204 40 40 1.000000
0.502482 -0.032890 -0.612881 0.000000 1.000000 0.000000 255 255 255 1.000000
-0.001033 -0.025968 0.253128 0.697321 -0.000000 0.716759 255 255 255 1.000000
-0.287721 -0.016605 -0.058009 0.000000 1.000000 0.000000 255 255 255 1.000000
0.091471 0.032250 -0.251603 0.000000 -1.000000 -0.000000 255 255 255 1.000000
-0.041463 -0.016605 0.246480 0.000000 1.000000 0.000000 255 255 255 1.000000
0.129340 -0.032890 -0.325319 0.000000 1.000000 0.000000 255 255 255 1.000000
0.415566 0.032250 -0.688949 0.000000 1.000000 0.000000 204 40 40 1.000000
-0.286935 0.012708 0.091435 0.000000 -1.000000 -0.000000 255 255 255 1.000000
-0.582410 -0.000320 0.267993 0.000000 -1.000000 -0.000000 201 207 217 1.000000
-0.001930 0.032250 0.270961 0.000000 1.000000 0.000000 204 40 40 1.000000
-0.277348 -0.000320 -0.188058 0.000000 1.000000 0.000000 201 207 217 1.000000
0.375997 -0.005398 -0.696952 -0.214571 -0.000000 0.976708 204 40 40 1.000000
0.003627 0.000464 -0.277947 -0.773735 -0.000000 0.633509 255 255 255 1.000000
-0.423704 0.012708 0.130604 0.000000 -1.000000 -0.000000 255 255 255 1.000000
0.050542 0.031955 0.476122 -0.982982 0.000000 -0.183701 255 255 255 1.000000
-0.228096 0.012708 0.010328 0.000000 1.000000 0.000000 199 205 215 1.000000
-0.143155 -0.000320 -0.013304 0.000000 -1.000000 -0.000000 255 255 255 1.000000
-0.006429 0.015925 0.515878 0.851043 0.000000 -0.525096 255 255 255 1.000000
-0.404719 -0.000320 0.094871 0.000000 1.000000 0.000000 255 255 255 1.000000
-0.661685 0.012708 0.374220 0.000000 1.000000 0.000000 197 203 213 1.000000
0.216111 -0.032890 0.789871 0.000000 1.000000 0.000000 255 255 255 1.000000
-0.242485 0.012708 0.078931 0.000000 1.000000 0.000000 202 208 218 1.000000
0.384225 0.032250 0.712816 0.000000 -1.000000 -0.000000 255 255 255 1.000000
-0.449059 0.012708 0.235641 0.000000 1.000000 0.000000 199 205 215 1.000000
0.106909 0.032250 -0.435267 0.000000 1.000000 0.000000 204 40 40 1.000000
0.052308 -0.032890 -0.407450 0.000000 1.000000 0.000000 255 255 255 1.000000
0.138192 -0.032890 0.352562 0.000000 -1.000000 -0.000000 204 40 40 1.000000
-0.533242 0.012708 0.298781 0.000000 1.000000 0.000000 198 204 214 1.000000
-0.047372 0.012708 -0.206367 0.000000 -1.000000 -0.000000 255 255 255 1.000000
-0.281120 -0.000320 -0.101457 0.000000 1.000000 0.000000 195 201 211 1.000000
0.023770 -0.032886 -0.253345 -0.773735 -0.000000 0.633509 204 40 40 1.000000
0.159602 0.010930 -0.534087 -0.782541 0.000000 -0.622599 255 255 255 1.000000
0.123493 -0.032890 -0.344885 0.000000 1.000000 0.000000 255 255 255 1.000000
0.171067 0.032250 -0.313059 0.000000 1.000000 0.000000 204 40 40 1.000000
0.015094 -0.022304 -0.444931 -0.795558 0.000000 -0.605878 204 40 40 1.000000
-0.461191 -0.016605 -0.340212 0.000000 1.000000 0.000000 255 255 255 1.000000
-0.355584 -0.016605 -0.262650 0.000000 -1.000000 -0.000000 198 204 214 1.000000
0.173864 -0.032890 -0.611771 0.000000 -1.000000 -0.000000 204 40 40 1.000000
