-0.197594 0.305440 -0.016015 0.000000 0.500000 0.500000
0.186156 -0.533606 0.197486 0.000000 0.500000 0.500000
-0.133459 0.642512 0.022415 0.000000 0.500000 0.500000
0.096943 -0.323234 -0.321612 0.000000 0.500000 0.500000
-0.039203 0.774790 0.112536 0.000000 0.500000 0.500000
0.156644 -0.090455 -0.238812 0.000000 0.500000 0.500000
0.169277 -0.443822 0.273852 0.000000 0.500000 0.500000
0.099733 0.173626 0.194916 0.000000 0.500000 0.500000
0.202326 -0.533606 0.024452 0.000000 0.500000 0.500000
-0.153544 0.043119 0.183260 0.000000 0.500000 0.500000
0.023662 -0.533606 0.043683 0.000000 0.500000 0.500000
0.001724 0.594427 -0.146331 0.000000 0.500000 0.500000
-0.098625 0.686210 0.084318 0.000000 0.500000 0.500000
0.293550 -0.533606 -0.023589 0.000000 0.500000 0.500000
0.101072 0.921284 -0.057884 0.300000 0.600000 0.000000
-0.260013 -0.233206 -0.165737 0.000000 0.500000 0.500000
0.026606 -0.533606 0.289250 0.000000 0.500000 0.500000
0.195573 -0.533606 -0.127217 0.000000 0.500000 0.500000
-0.077298 -0.465767 0.312651 0.000000 0.500000 0.500000
0.034936 0.410866 -0.181439 0.000000 0.500000 0.500000
0.227061 0.100439 -0.089757 0.000000 0.500000 0.500000
-0.158875 0.513841 -0.004183 0.000000 0.500000 0.500000
-0.210543 0.167143 0.067728 0.000000 0.500000 0.500000
0.089813 0.388874 0.160948 0.000000 0.500000 0.500000
-0.056944 0.886229 0.102807 0.300000 0.600000 0.000000
0.154628 -0.056494 -0.231688 0.000000 0.500000 0.500000
0.116512 -0.533606 0.173193 0.000000 0.500000 0.500000
-0.169832 -0.065278 0.193666 0.000000 0.500000 0.500000
-0.035738 0.726273 -0.112332 0.000000 0.500000 0.500000
0.120660 0.303450 -0.168279 0.000000 0.500000 0.500000
-0.117608 -0.533606 -0.078790 0.000000 0.500000 0.500000
-0.266875 -0.291642 -0.177929 0.000000 0.500000 0.500000
0.128415 -0.386964 0.281348 0.000000 0.500000 0.500000
-0.339560 -0.476515 -0.074026 0.000000 0.500000 0.500000
-0.235232 0.084332 -0.053502 0.000000 0.500000 0.500000
0.128433 -0.455153 -0.337574 0.000000 0.500000 0.500000
-0.333114 -0.414486 -0.025668 0.000000 0.500000 0.500000
0.051022 0.058617 -0.252195 0.000000 0.500000 0.500000
0.033532 0.296187 -0.205452 0.000000 0.500000 0.500000
0.081011 -0.412636 -0.345212 0.000000 0.500000 0.500000
0.131685 0.681993 -0.024868 0.000000 0.500000 0.500000
-0.219571 -0.281441 0.199663 0.000000 0.500000 0.500000
0.026209 0.395240 0.179351 0.000000 0.500000 0.500000
-0.085866 -0.533606 -0.252588 0.000000 0.500000 0.500000
0.167108 -0.458897 -0.321234 0.000000 0.500000 0.500000
0.149678 0.581131 -0.031284 0.000000 0.500000 0.500000
-0.335494 -0.454516 0.029628 0.000000 0.500000 0.500000
-0.257338 -0.169303 0.111488 0.000000 0.500000 0.500000
0.040466 -0.533606 -0.295754 0.000000 0.500000 0.500000
-0.099712 0.615947 -0.098452 0.000000 0.500000 0.500000
-0.098394 0.394529 0.150121 0.000000 0.500000 0.500000
0.080356 -0.533606 -0.032213 0.000000 0.500000 0.500000
0.191483 -0.382059 -0.285236 0.000000 0.500000 0.500000
-0.146997 -0.132997 0.225323 0.000000 0.500000 0.500000
0.103149 0.288309 -0.183397 0.000000 0.500000 0.500000
-0.171847 0.327638 -0.095597 0.000000 0.500000 0.500000
-0.238715 -0.368321 0.200477 0.000000 0.500000 0.500000
-0.297641 -0.396052 -0.160035 0.000000 0.500000 0.500000
-0.102779 -0.042009 0.230117 0.000000 0.500000 0.500000
-0.032483 0.545946 0.152040 0.000000 0.500000 0.500000
0.219480 0.165835 0.057430 0.000000 0.500000 0.500000
0.214714 0.231416 -0.032181 0.000000 0.500000 0.500000
0.273520 -0.076380 -0.018606 0.000000 0.500000 0.500000
0.106172 0.880160 0.057815 0.300000 0.600000 0.000000
0.129229 -0.533606 -0.057570 0.000000 0.500000 0.500000
-0.002918 0.531616 -0.159258 0.000000 0.500000 0.500000
0.299124 -0.239708 0.026960 0.000000 0.500000 0.500000
-0.057320 0.334481 0.180928 0.000000 0.500000 0.500000
0.026130 -0.090030 -0.286348 0.000000 0.500000 0.500000
0.241821 -0.219294 -0.191614 0.000000 0.500000 0.500000
-0.064558 0.595008 0.131613 0.000000 0.500000 0.500000
-0.226110 0.071123 -0.095988 0.000000 0.500000 0.500000
-0.012064 -0.031918 0.250137 0.000000 0.500000 0.500000
0.119041 0.045216 0.209325 0.000000 0.500000 0.500000
-0.105953 -0.374714 -0.328047 0.000000 0.500000 0.500000
0.036602 0.228168 -0.219037 0.000000 0.500000 0.500000
-0.344770 -0.531120 0.013258 0.000000 0.500000 0.500000
0.266352 -0.533606 0.005499 0.000000 0.500000 0.500000
-0.337232 -0.444206 -0.045694 0.000000 0.500000 0.500000
-0.126299 -0.533606 -0.147539 0.000000 0.500000 0.500000
0.043268 -0.533606 -0.077280 0.000000 0.500000 0.500000
0.143980 -0.110993 -0.253590 0.000000 0.500000 0.500000
0.089993 0.905250 0.081907 0.300000 0.600000 0.000000
0.053886 0.328250 -0.194832 0.000000 0.500000 0.500000
0.165040 0.491747 -0.039469 0.000000 0.500000 0.500000
-0.237616 0.006835 0.077222 0.000000 0.500000 0.500000
0.305505 -0.533606 -0.048582 0.000000 0.500000 0.500000
-0.101377 -0.533606 -0.090598 0.000000 0.500000 0.500000
-0.033822 0.808342 0.113810 0.300000 0.600000 0.000000
0.109403 0.554687 0.113288 0.000000 0.500000 0.500000
0.033361 0.509962 0.159422 0.000000 0.500000 0.500000
-0.262702 -0.040215 -0.020316 0.000000 0.500000 0.500000
0.231830 -0.155280 0.153719 0.000000 0.500000 0.500000
-0.062819 -0.002772 -0.261944 0.000000 0.500000 0.500000
-0.240721 -0.523084 -0.281160 0.000000 0.500000 0.500000
0.115901 -0.533606 -0.248665 0.000000 0.500000 0.500000
0.224601 0.009279 -0.138436 0.000000 0.500000 0.500000
0.300170 -0.266593 0.053031 0.000000 0.500000 0.500000
-0.099170 0.810498 -0.047553 0.300000 0.600000 0.000000
0.199751 0.312210 -0.033016 0.000000 0.500000 0.500000
0.059781 -0.533606 0.099975 0.000000 0.500000 0.500000
-0.290966 -0.533606 -0.076335 0.000000 0.500000 0.500000
-0.048469 -0.177883 -0.301250 0.000000 0.500000 0.500000
-0.270219 -0.423558 -0.217322 0.000000 0.500000 0.500000
0.024700 -0.533606 -0.109208 0.000000 0.500000 0.500000
0.314315 -0.485404 -0.170273 0.000000 0.500000 0.500000
0.340708 -0.463550 -0.062115 0.000000 0.500000 0.500000
0.025012 0.783946 0.118125 0.300000 0.600000 0.000000
0.147775 -0.220245 -0.276858 0.000000 0.500000 0.500000
0.103943 -0.449410 0.302447 0.000000 0.500000 0.500000
-0.103781 0.212580 -0.197849 0.000000 0.500000 0.500000
-0.041245 -0.533606 -0.334978 0.000000 0.500000 0.500000
-0.241388 -0.533606 0.167430 0.000000 0.500000 0.500000
-0.150266 0.488750 -0.066827 0.000000 0.500000 0.500000
0.130392 0.266673 -0.170056 0.000000 0.500000 0.500000
-0.014091 0.149632 -0.237536 0.000000 0.500000 0.500000
-0.055155 -0.331105 0.293527 0.000000 0.500000 0.500000
0.138847 0.450899 0.106518 0.000000 0.500000 0.500000
-0.000518 -0.190917 0.276840 0.000000 0.500000 0.500000
0.273791 -0.108759 -0.070321 0.000000 0.500000 0.500000
0.024953 -0.515525 -0.374616 0.000000 0.500000 0.500000
-0.245855 -0.533606 -0.127681 0.000000 0.500000 0.500000
-0.106709 0.837277 -0.027156 0.300000 0.600000 0.000000
0.100839 0.718796 0.081713 0.000000 0.500000 0.500000
0.159940 -0.533606 0.072612 0.000000 0.500000 0.500000
-0.006775 0.581394 0.149862 0.000000 0.500000 0.500000
0.217643 -0.142654 -0.198733 0.000000 0.500000 0.500000
0.158527 0.421682 0.087501 0.000000 0.500000 0.500000
-0.138325 0.352195 0.126286 0.000000 0.500000 0.500000
0.039799 -0.376112 -0.343738 0.000000 0.500000 0.500000
0.121619 -0.530878 0.301604 0.000000 0.500000 0.500000
0.066377 0.922435 -0.092335 0.300000 0.600000 0.000000
0.080652 -0.533606 0.190294 0.000000 0.500000 0.500000
0.240523 -0.533606 -0.206289 0.000000 0.500000 0.500000
-0.074088 0.369764 0.168041 0.000000 0.500000 0.500000
-0.271467 -0.088769 -0.001420 0.000000 0.500000 0.500000
-0.060003 -0.107454 -0.284533 0.000000 0.500000 0.500000
0.330928 -0.423002 -0.079860 0.000000 0.500000 0.500000
-0.225379 -0.021657 -0.141651 0.000000 0.500000 0.500000
-0.084539 0.025631 0.225670 0.000000 0.500000 0.500000
0.122084 -0.059617 -0.252914 0.000000 0.500000 0.500000
-0.104200 0.960421 0.044808 0.300000 0.600000 0.000000
-0.107840 -0.533606 0.247165 0.000000 0.500000 0.500000
-0.030599 -0.533606 0.116732 0.000000 0.500000 0.500000
-0.188434 0.273713 0.072059 0.000000 0.500000 0.500000
0.339600 -0.438134 -0.008701 0.000000 0.500000 0.500000
-0.268362 -0.533606 -0.181822 0.000000 0.500000 0.500000
-0.029913 -0.533606 0.038513 0.000000 0.500000 0.500000
0.168660 0.123563 -0.175161 0.000000 0.500000 0.500000
0.061803 0.683779 -0.114449 0.000000 0.500000 0.500000
0.295110 -0.413226 -0.179332 0.000000 0.500000 0.500000
-0.196441 -0.129698 0.185556 0.000000 0.500000 0.500000
0.054526 -0.533606 -0.127421 0.000000 0.500000 0.500000
-0.135795 0.390437 -0.126324 0.000000 0.500000 0.500000
0.171140 -0.533606 -0.208638 0.000000 0.500000 0.500000
-0.202308 -0.533606 0.056945 0.000000 0.500000 0.500000
-0.009213 -0.533606 0.145365 0.000000 0.500000 0.500000
0.021210 -0.476700 -0.367080 0.000000 0.500000 0.500000
0.070471 0.998822 0.058446 0.300000 0.600000 0.000000
-0.060306 -0.185209 0.268975 0.000000 0.500000 0.500000
-0.008401 -0.258063 0.287427 0.000000 0.500000 0.500000
-0.113074 -0.182425 -0.282619 0.000000 0.500000 0.500000
0.132575 0.333406 -0.151430 0.000000 0.500000 0.500000
-0.197675 -0.070671 0.169595 0.000000 0.500000 0.500000
0.265940 -0.087781 -0.086351 0.000000 0.500000 0.500000
0.074805 0.975578 0.095806 0.300000 0.600000 0.000000
-0.138379 -0.418151 -0.324399 0.000000 0.500000 0.500000
0.159837 -0.311888 -0.291623 0.000000 0.500000 0.500000
-0.076497 0.400949 0.161160 0.000000 0.500000 0.500000
0.223544 -0.016724 0.125406 0.000000 0.500000 0.500000
-0.324590 -0.455065 0.080539 0.000000 0.500000 0.500000
-0.055429 0.995836 -0.088141 0.300000 0.600000 0.000000
-0.169163 -0.152442 0.212726 0.000000 0.500000 0.500000
0.069322 -0.533606 -0.157485 0.000000 0.500000 0.500000
0.277688 -0.300147 0.128998 0.000000 0.500000 0.500000
-0.114910 0.403464 -0.142783 0.000000 0.500000 0.500000
-0.054142 -0.440166 -0.354861 0.000000 0.500000 0.500000
0.014857 -0.292109 -0.329573 0.000000 0.500000 0.500000
-0.077490 0.902275 0.087045 0.300000 0.600000 0.000000
-0.100833 0.780405 0.054382 0.300000 0.600000 0.000000
-0.109720 0.107019 0.199952 0.000000 0.500000 0.500000
0.225604 0.186676 -0.006322 0.000000 0.500000 0.500000
-0.163607 -0.533606 -0.224003 0.000000 0.500000 0.500000
0.005583 -0.403348 0.311682 0.000000 0.500000 0.500000
-0.170482 0.102172 0.155105 0.000000 0.500000 0.500000
-0.113284 0.648892 0.075235 0.000000 0.500000 0.500000
-0.037786 0.189328 -0.226232 0.000000 0.500000 0.500000
0.277118 -0.533606 0.080005 0.000000 0.500000 0.500000
-0.146394 -0.533606 0.054134 0.000000 0.500000 0.500000
0.019036 0.154733 0.219633 0.000000 0.500000 0.500000
0.189868 0.238488 -0.109386 0.000000 0.500000 0.500000
0.224678 0.182138 -0.028946 0.000000 0.500000 0.500000
-0.021815 0.104525 0.226390 0.000000 0.500000 0.500000
0.209631 0.180773 -0.090353 0.000000 0.500000 0.500000
-0.131448 0.576655 0.068306 0.000000 0.500000 0.500000
0.146852 -0.533477 0.271136 0.000000 0.500000 0.500000
0.032696 -0.533606 -0.136296 0.000000 0.500000 0.500000
-0.183506 -0.224564 0.216928 0.000000 0.500000 0.500000
-0.073834 -0.533606 0.286890 0.000000 0.500000 0.500000
-0.028060 0.295639 -0.205507 0.000000 0.500000 0.500000
-0.063749 -0.495004 0.319528 0.000000 0.500000 0.500000
-0.193828 -0.533606 0.096697 0.000000 0.500000 0.500000
-0.042922 -0.533606 0.005586 0.000000 0.500000 0.500000
0.114438 0.825329 0.036396 0.300000 0.600000 0.000000
-0.227890 -0.287319 -0.227568 0.000000 0.500000 0.500000
-0.207794 0.249716 -0.023943 0.000000 0.500000 0.500000
0.102733 0.816315 0.064784 0.300000 0.600000 0.000000
-0.128143 0.137588 0.182268 0.000000 0.500000 0.500000
0.084366 -0.209994 0.267707 0.000000 0.500000 0.500000
-0.107099 0.760750 -0.033271 0.000000 0.500000 0.500000
0.286585 -0.328201 0.120693 0.000000 0.500000 0.500000
0.250887 -0.163357 0.129770 0.000000 0.500000 0.500000
-0.236665 0.034870 -0.088265 0.000000 0.500000 0.500000
-0.325682 -0.533432 0.075941 0.000000 0.500000 0.500000
-0.193848 0.095007 -0.147320 0.000000 0.500000 0.500000
0.073184 -0.533606 -0.281049 0.000000 0.500000 0.500000
-0.282657 -0.317872 -0.156556 0.000000 0.500000 0.500000
0.068342 0.901520 0.100534 0.300000 0.600000 0.000000
-0.042469 -0.533604 0.296515 0.000000 0.500000 0.500000
0.088483 0.463157 0.147614 0.000000 0.500000 0.500000
0.109321 0.538085 -0.117178 0.000000 0.500000 0.500000
0.297761 -0.212555 -0.001811 0.000000 0.500000 0.500000
0.095745 0.992022 0.072533 0.300000 0.600000 0.000000
-0.174929 0.420377 -0.025934 0.000000 0.500000 0.500000
0.118364 0.893504 -0.007730 0.300000 0.600000 0.000000
0.126455 0.713660 0.028033 0.000000 0.500000 0.500000
-0.220922 -0.129410 0.156018 0.000000 0.500000 0.500000
0.197750 -0.533606 -0.162496 0.000000 0.500000 0.500000
-0.159035 0.436254 0.067572 0.000000 0.500000 0.500000
0.063775 0.959300 -0.093922 0.300000 0.600000 0.000000
0.226576 0.174264 0.008744 0.000000 0.500000 0.500000
-0.184805 0.343170 0.045741 0.000000 0.500000 0.500000
0.058594 -0.407194 0.305961 0.000000 0.500000 0.500000
-0.201576 0.222172 -0.078257 0.000000 0.500000 0.500000
0.119069 0.771850 0.002941 0.000000 0.500000 0.500000
-0.255366 -0.008555 0.011736 0.000000 0.500000 0.500000
0.067991 -0.533251 -0.356510 0.000000 0.500000 0.500000
-0.071759 -0.381361 0.299501 0.000000 0.500000 0.500000
0.202561 -0.309612 0.221580 0.000000 0.500000 0.500000
-0.002110 -0.090145 0.260251 0.000000 0.500000 0.500000
0.045171 0.388829 0.177578 0.000000 0.500000 0.500000
0.233492 -0.373007 -0.250191 0.000000 0.500000 0.500000
0.110491 0.229404 -0.193211 0.000000 0.500000 0.500000
-0.012109 0.654693 -0.132977 0.000000 0.500000 0.500000
0.028543 0.425783 0.174079 0.000000 0.500000 0.500000
-0.162625 -0.323334 0.253150 0.000000 0.500000 0.500000
0.231556 -0.326023 -0.239001 0.000000 0.500000 0.500000
0.200509 0.254881 0.063554 0.000000 0.500000 0.500000
-0.218463 -0.170897 -0.202002 0.000000 0.500000 0.500000
0.183095 -0.080762 -0.216141 0.000000 0.500000 0.500000
0.094865 0.132883 0.203840 0.000000 0.500000 0.500000
0.028414 0.998838 0.007233 0.300000 0.600000 0.000000
-0.225410 -0.377599 0.216696 0.000000 0.500000 0.500000
0.317867 -0.357385 0.044756 0.000000 0.500000 0.500000
-0.085953 0.842729 0.077422 0.300000 0.600000 0.000000
-0.127623 0.245577 -0.173386 0.000000 0.500000 0.500000
0.134354 -0.533606 -0.018790 0.000000 0.500000 0.500000
-0.013557 0.210438 -0.224982 0.000000 0.500000 0.500000
0.255810 -0.196691 0.132514 0.000000 0.500000 0.500000
0.174607 -0.266460 0.234838 0.000000 0.500000 0.500000
-0.227323 0.123004 0.038123 0.000000 0.500000 0.500000
-0.032960 -0.337188 -0.336233 0.000000 0.500000 0.500000
-0.045456 -0.533606 0.155439 0.000000 0.500000 0.500000
0.211582 -0.398259 -0.273743 0.000000 0.500000 0.500000
-0.107758 -0.143413 0.246088 0.000000 0.500000 0.500000
-0.019469 -0.533606 -0.063277 0.000000 0.500000 0.500000
-0.092394 -0.244922 0.270457 0.000000 0.500000 0.500000
-0.314316 -0.315879 -0.029056 0.000000 0.500000 0.500000
0.146834 0.214782 0.155809 0.000000 0.500000 0.500000
-0.107350 -0.533606 -0.181201 0.000000 0.500000 0.500000
0.067209 0.011006 0.235369 0.000000 0.500000 0.500000
-0.127420 -0.452780 0.293085 0.000000 0.500000 0.500000
-0.187808 0.224123 -0.109472 0.000000 0.500000 0.500000
0.149416 -0.533606 0.177763 0.000000 0.500000 0.500000
-0.048452 0.579350 0.141428 0.000000 0.500000 0.500000
0.206012 -0.533606 -0.237881 0.000000 0.500000 0.500000
0.041306 0.997971 0.097422 0.300000 0.600000 0.000000
0.155955 0.248370 -0.152244 0.000000 0.500000 0.500000
-0.185022 -0.027262 0.172401 0.000000 0.500000 0.500000
-0.139800 0.101022 0.181470 0.000000 0.500000 0.500000
0.007367 -0.152051 -0.300771 0.000000 0.500000 0.500000
0.238503 -0.533606 0.150965 0.000000 0.500000 0.500000
-0.194411 -0.020908 -0.184273 0.000000 0.500000 0.500000
-0.116590 0.565867 -0.094017 0.000000 0.500000 0.500000
-0.309005 -0.294224 -0.043111 0.000000 0.500000 0.500000
0.245206 0.007171 -0.091767 0.000000 0.500000 0.500000
0.170458 0.481011 -0.017812 0.000000 0.500000 0.500000
-0.274639 -0.123268 -0.055877 0.000000 0.500000 0.500000
-0.041672 0.162467 0.214101 0.000000 0.500000 0.500000
0.060179 -0.246208 -0.314111 0.000000 0.500000 0.500000
0.070238 -0.141866 -0.290570 0.000000 0.500000 0.500000
0.248285 -0.470448 0.218176 0.000000 0.500000 0.500000
-0.159849 -0.461519 0.280837 0.000000 0.500000 0.500000
0.238476 -0.041656 -0.132928 0.000000 0.500000 0.500000
-0.066407 0.308175 -0.193069 0.000000 0.500000 0.500000
-0.172820 -0.058177 -0.216281 0.000000 0.500000 0.500000
0.004376 0.974981 -0.110287 0.300000 0.600000 0.000000
0.106389 -0.490454 -0.354410 0.000000 0.500000 0.500000
0.337829 -0.488760 0.066675 0.000000 0.500000 0.500000
0.087734 0.548796 -0.130823 0.000000 0.500000 0.500000
-0.265132 -0.060986 0.010831 0.000000 0.500000 0.500000
-0.158870 0.283112 0.120088 0.000000 0.500000 0.500000
0.305893 -0.256065 -0.002703 0.000000 0.500000 0.500000
-0.168624 -0.533533 0.272341 0.000000 0.500000 0.500000
-0.063399 0.944296 -0.089005 0.300000 0.600000 0.000000
-0.082121 0.783883 0.082289 0.300000 0.600000 0.000000
0.149426 -0.252703 0.248939 0.000000 0.500000 0.500000
0.200837 -0.292924 -0.255466 0.000000 0.500000 0.500000
0.137307 0.493548 0.097002 0.000000 0.500000 0.500000
0.202094 0.107679 0.119217 0.000000 0.500000 0.500000
-0.103479 0.090109 -0.226164 0.000000 0.500000 0.500000
0.260770 -0.291280 -0.189750 0.000000 0.500000 0.500000
-0.107834 0.727731 0.055637 0.000000 0.500000 0.500000
-0.173825 0.076462 -0.178583 0.000000 0.500000 0.500000
0.205251 -0.533606 0.170542 0.000000 0.500000 0.500000
-0.041405 0.156991 -0.232383 0.000000 0.500000 0.500000
0.065308 0.516412 0.148937 0.000000 0.500000 0.500000
-0.106537 -0.533606 0.195283 0.000000 0.500000 0.500000
-0.020373 -0.533606 -0.220389 0.000000 0.500000 0.500000
0.171092 0.147196 -0.165583 0.000000 0.500000 0.500000
0.031220 -0.053260 0.252022 0.000000 0.500000 0.500000
-0.099444 -0.533606 0.173072 0.000000 0.500000 0.500000
0.003013 0.378814 -0.190898 0.000000 0.500000 0.500000
-0.066054 0.998838 -0.024693 0.300000 0.600000 0.000000
0.189520 -0.533606 0.137793 0.000000 0.500000 0.500000
0.154205 0.453944 0.083981 0.000000 0.500000 0.500000
-0.090289 -0.347460 0.289110 0.000000 0.500000 0.500000
-0.097373 -0.453271 -0.348669 0.000000 0.500000 0.500000
-0.020394 0.706936 0.127414 0.000000 0.500000 0.500000
0.018518 0.111461 0.226608 0.000000 0.500000 0.500000
0.175351 -0.304207 0.242067 0.000000 0.500000 0.500000
0.219029 0.064192 0.105333 0.000000 0.500000 0.500000
-0.240847 -0.206843 -0.184775 0.000000 0.500000 0.500000
0.317706 -0.361805 -0.091547 0.000000 0.500000 0.500000
-0.036092 -0.533606 -0.114050 0.000000 0.500000 0.500000
0.184025 0.092833 0.147017 0.000000 0.500000 0.500000
-0.106140 -0.525129 0.314232 0.000000 0.500000 0.500000
-0.106994 0.865398 -0.026039 0.300000 0.600000 0.000000
-0.264263 -0.187326 0.103211 0.000000 0.500000 0.500000
-0.086979 -0.268943 -0.311865 0.000000 0.500000 0.500000
-0.115252 0.509197 0.111305 0.000000 0.500000 0.500000
0.327926 -0.374614 -0.009649 0.000000 0.500000 0.500000
-0.093226 -0.533606 -0.112899 0.000000 0.500000 0.500000
0.277097 -0.133206 -0.076769 0.000000 0.500000 0.500000
-0.025974 -0.477683 -0.366257 0.000000 0.500000 0.500000
-0.224211 -0.533606 -0.047518 0.000000 0.500000 0.500000
0.206032 -0.533606 -0.016456 0.000000 0.500000 0.500000
-0.051600 0.655498 0.126172 0.000000 0.500000 0.500000
-0.160503 0.198025 0.141559 0.000000 0.500000 0.500000
-0.308454 -0.381999 0.086318 0.000000 0.500000 0.500000
-0.276122 -0.457068 -0.220570 0.000000 0.500000 0.500000
-0.104115 0.863862 0.045058 0.300000 0.600000 0.000000
0.210044 -0.465583 0.248267 0.000000 0.500000 0.500000
-0.304297 -0.339314 0.076187 0.000000 0.500000 0.500000
-0.242159 -0.093442 -0.139959 0.000000 0.500000 0.500000
-0.026111 0.906595 0.115704 0.300000 0.600000 0.000000
-0.013312 0.347756 0.188028 0.000000 0.500000 0.500000
0.164573 0.466097 -0.058004 0.000000 0.500000 0.500000
-0.004875 -0.533606 -0.245263 0.000000 0.500000 0.500000
-0.250209 -0.061812 -0.105210 0.000000 0.500000 0.500000
0.166771 0.416411 -0.077480 0.000000 0.500000 0.500000
-0.116587 0.576342 0.092025 0.000000 0.500000 0.500000
-0.210301 0.200235 0.049103 0.000000 0.500000 0.500000
0.275257 -0.272998 -0.158978 0.000000 0.500000 0.500000
-0.140272 0.125421 -0.194349 0.000000 0.500000 0.500000
-0.028265 0.932008 0.115091 0.300000 0.600000 0.000000
-0.172973 -0.209833 -0.254708 0.000000 0.500000 0.500000
0.256278 0.014291 -0.026969 0.000000 0.500000 0.500000
-0.108457 0.694534 -0.059793 0.000000 0.500000 0.500000
-0.231803 0.123570 -0.000644 0.000000 0.500000 0.500000
0.016578 0.287948 -0.209369 0.000000 0.500000 0.500000
-0.202139 0.174827 -0.100938 0.000000 0.500000 0.500000
-0.265411 -0.127563 -0.102040 0.000000 0.500000 0.500000
0.134311 0.565205 0.080053 0.000000 0.500000 0.500000
-0.140449 0.185883 0.162112 0.000000 0.500000 0.500000
-0.134542 -0.003514 0.207676 0.000000 0.500000 0.500000
-0.235616 0.080892 0.035643 0.000000 0.500000 0.500000
-0.331138 -0.533585 -0.041753 0.000000 0.500000 0.500000
-0.091729 0.607329 0.110557 0.000000 0.500000 0.500000
0.059868 0.719356 -0.107138 0.000000 0.500000 0.500000
0.083932 0.635229 -0.112676 0.000000 0.500000 0.500000
-0.026155 -0.533606 -0.266710 0.000000 0.500000 0.500000
0.026412 0.998838 0.060076 0.300000 0.600000 0.000000
-0.348137 -0.496295 -0.034711 0.000000 0.500000 0.500000
0.036449 -0.533606 -0.002549 0.000000 0.500000 0.500000
0.059220 0.785862 -0.096570 0.300000 0.600000 0.000000
-0.210674 0.059479 0.113761 0.000000 0.500000 0.500000
0.171548 0.286646 -0.119688 0.000000 0.500000 0.500000
0.309304 -0.272174 -0.011196 0.000000 0.500000 0.500000
-0.208214 0.009456 -0.156644 0.000000 0.500000 0.500000
-0.155567 0.225044 -0.154184 0.000000 0.500000 0.500000
-0.278538 -0.411688 0.160651 0.000000 0.500000 0.500000
-0.128261 -0.007736 -0.236272 0.000000 0.500000 0.500000
0.281500 -0.533604 0.137818 0.000000 0.500000 0.500000
0.018253 0.107201 -0.246578 0.000000 0.500000 0.500000
-0.072289 0.885611 -0.081903 0.300000 0.600000 0.000000
-0.001553 -0.473675 0.323119 0.000000 0.500000 0.500000
0.080521 -0.467886 -0.356900 0.000000 0.500000 0.500000
0.158654 -0.369957 0.265735 0.000000 0.500000 0.500000
0.034795 -0.302798 -0.329302 0.000000 0.500000 0.500000
-0.110870 0.807703 -0.005201 0.300000 0.600000 0.000000
-0.096143 -0.533606 -0.237707 0.000000 0.500000 0.500000
-0.255989 -0.532730 0.208786 0.000000 0.500000 0.500000
0.290647 -0.402321 0.142652 0.000000 0.500000 0.500000
0.117321 0.968268 -0.013742 0.300000 0.600000 0.000000
0.068907 -0.533606 -0.006419 0.000000 0.500000 0.500000
0.033763 0.998838 -0.061777 0.300000 0.600000 0.000000
-0.282605 -0.184355 0.049383 0.000000 0.500000 0.500000
-0.019807 0.688918 0.130551 0.000000 0.500000 0.500000
0.304029 -0.450907 0.133981 0.000000 0.500000 0.500000
0.297879 -0.284694 0.073624 0.000000 0.500000 0.500000
0.041549 -0.533606 0.055574 0.000000 0.500000 0.500000
-0.118374 -0.317312 -0.310282 0.000000 0.500000 0.500000
0.255763 -0.104416 0.094071 0.000000 0.500000 0.500000
-0.079746 0.634090 0.113638 0.000000 0.500000 0.500000
-0.024110 0.998838 -0.039647 0.300000 0.600000 0.000000
-0.085630 0.073726 0.216655 0.000000 0.500000 0.500000
-0.203381 0.274994 -0.018084 0.000000 0.500000 0.500000
-0.255379 -0.048188 -0.082210 0.000000 0.500000 0.500000
-0.138633 0.213642 -0.173069 0.000000 0.500000 0.500000
0.201736 -0.394195 0.240221 0.000000 0.500000 0.500000
0.102030 -0.186045 0.256561 0.000000 0.500000 0.500000
0.145070 0.236090 -0.166059 0.000000 0.500000 0.500000
0.162309 0.521844 0.024024 0.000000 0.500000 0.500000
0.034703 -0.464419 -0.362759 0.000000 0.500000 0.500000
0.100087 0.029335 0.219494 0.000000 0.500000 0.500000
-0.308876 -0.512420 0.145267 0.000000 0.500000 0.500000
-0.110585 0.780048 0.019281 0.300000 0.600000 0.000000
-0.025012 0.558593 -0.150929 0.000000 0.500000 0.500000
-0.077980 -0.533606 0.077760 0.000000 0.500000 0.500000
-0.230599 -0.483516 -0.280599 0.000000 0.500000 0.500000
0.281095 -0.142269 -0.061724 0.000000 0.500000 0.500000
0.136509 0.569986 -0.073215 0.000000 0.500000 0.500000
-0.064744 -0.504687 -0.366960 0.000000 0.500000 0.500000
-0.159828 0.482915 0.039443 0.000000 0.500000 0.500000
-0.182722 0.033103 0.159766 0.000000 0.500000 0.500000
0.224327 -0.416080 0.226899 0.000000 0.500000 0.500000
0.137830 -0.265586 -0.291888 0.000000 0.500000 0.500000
0.090045 0.664619 -0.100455 0.000000 0.500000 0.500000
0.117691 0.975666 0.019871 0.300000 0.600000 0.000000
0.206036 -0.329387 0.222966 0.000000 0.500000 0.500000
-0.143516 0.570181 0.038860 0.000000 0.500000 0.500000
0.111475 0.277763 0.169382 0.000000 0.500000 0.500000
-0.163531 0.119894 -0.176730 0.000000 0.500000 0.500000
-0.273890 -0.261811 -0.149310 0.000000 0.500000 0.500000
-0.290124 -0.453838 -0.200453 0.000000 0.500000 0.500000
0.244021 -0.515612 -0.278551 0.000000 0.500000 0.500000
0.001034 0.745498 -0.115064 0.000000 0.500000 0.500000
-0.252556 -0.016071 -0.066407 0.000000 0.500000 0.500000
0.320065 -0.532733 -0.155961 0.000000 0.500000 0.500000
-0.336269 -0.432264 -0.012704 0.000000 0.500000 0.500000
-0.300453 -0.364613 -0.137613 0.000000 0.500000 0.500000
-0.106893 0.759672 0.043348 0.000000 0.500000 0.500000
-0.231886 -0.010011 0.099103 0.000000 0.500000 0.500000
0.224322 -0.008415 -0.145371 0.000000 0.500000 0.500000
0.084919 0.417878 -0.163057 0.000000 0.500000 0.500000
0.114037 0.651055 -0.078884 0.000000 0.500000 0.500000
-0.142216 0.573908 -0.040026 0.000000 0.500000 0.500000
-0.144771 -0.012770 -0.226013 0.000000 0.500000 0.500000
0.043983 -0.154519 -0.297360 0.000000 0.500000 0.500000
0.116671 0.578813 -0.098337 0.000000 0.500000 0.500000
-0.305599 -0.293995 -0.067563 0.000000 0.500000 0.500000
0.079995 -0.271423 0.279829 0.000000 0.500000 0.500000
-0.265878 -0.207528 0.108749 0.000000 0.500000 0.500000
-0.161318 0.491452 -0.025478 0.000000 0.500000 0.500000
0.096002 0.768325 0.076343 0.000000 0.500000 0.500000
0.226604 -0.244906 -0.219702 0.000000 0.500000 0.500000
0.234774 0.129366 -0.027004 0.000000 0.500000 0.500000
0.002823 0.120862 0.225858 0.000000 0.500000 0.500000
-0.297479 -0.408569 0.125766 0.000000 0.500000 0.500000
0.089922 0.259475 -0.196406 0.000000 0.500000 0.500000
0.146029 -0.022814 0.205983 0.000000 0.500000 0.500000
0.064968 -0.041342 -0.270387 0.000000 0.500000 0.500000
-0.256861 -0.345318 0.170265 0.000000 0.500000 0.500000
0.238098 0.084154 -0.063706 0.000000 0.500000 0.500000
0.092156 -0.533606 0.081272 0.000000 0.500000 0.500000
0.198294 -0.250351 0.212651 0.000000 0.500000 0.500000
0.202084 -0.157785 -0.220754 0.000000 0.500000 0.500000
0.065614 -0.066971 0.249080 0.000000 0.500000 0.500000
0.168542 0.385892 0.081340 0.000000 0.500000 0.500000
0.048191 0.368730 -0.187656 0.000000 0.500000 0.500000
0.089273 -0.533606 -0.154680 0.000000 0.500000 0.500000
0.212395 0.064830 -0.137404 0.000000 0.500000 0.500000
-0.061739 0.169040 0.208316 0.000000 0.500000 0.500000
0.096203 0.689055 -0.088635 0.000000 0.500000 0.500000
-0.127240 0.509852 0.097048 0.000000 0.500000 0.500000
-0.189858 -0.533606 -0.255970 0.000000 0.500000 0.500000
0.016419 -0.321982 0.297701 0.000000 0.500000 0.500000
0.099037 -0.125872 0.247306 0.000000 0.500000 0.500000
-0.052650 0.998838 0.043908 0.300000 0.600000 0.000000
0.085626 0.599605 0.122576 0.000000 0.500000 0.500000
-0.217749 -0.425488 0.233085 0.000000 0.500000 0.500000
0.269799 -0.307953 0.146274 0.000000 0.500000 0.500000
-0.011206 0.881212 0.119204 0.300000 0.600000 0.000000
0.262854 -0.329183 0.161554 0.000000 0.500000 0.500000
-0.133773 0.645191 -0.009968 0.000000 0.500000 0.500000
0.061089 0.998838 -0.030922 0.300000 0.600000 0.000000
-0.193338 -0.511627 0.270182 0.000000 0.500000 0.500000
-0.134663 -0.043970 0.215316 0.000000 0.500000 0.500000
0.259851 -0.445353 -0.240789 0.000000 0.500000 0.500000
0.135622 0.510126 -0.095555 0.000000 0.500000 0.500000
-0.038895 0.339799 0.185417 0.000000 0.500000 0.500000
-0.307922 -0.454746 0.122012 0.000000 0.500000 0.500000
0.065090 0.672161 0.120992 0.000000 0.500000 0.500000
-0.145729 0.246590 -0.158182 0.000000 0.500000 0.500000
-0.038707 -0.003596 0.241882 0.000000 0.500000 0.500000
-0.057650 0.920501 0.102416 0.300000 0.600000 0.000000
-0.023456 -0.533606 -0.099814 0.000000 0.500000 0.500000
0.241774 0.094935 -0.024299 0.000000 0.500000 0.500000
-0.113566 0.212228 0.177644 0.000000 0.500000 0.500000
0.038066 0.840932 -0.105818 0.300000 0.600000 0.000000
0.168053 -0.533606 -0.130605 0.000000 0.500000 0.500000
0.158578 -0.533606 -0.104896 0.000000 0.500000 0.500000
-0.082675 0.304906 0.175547 0.000000 0.500000 0.500000
-0.165371 0.396391 0.070945 0.000000 0.500000 0.500000
-0.094443 0.859753 -0.056191 0.300000 0.600000 0.000000
0.007774 0.852845 0.119855 0.300000 0.600000 0.000000
0.198313 -0.533606 0.004711 0.000000 0.500000 0.500000
-0.261745 -0.335500 -0.199606 0.000000 0.500000 0.500000
-0.259513 -0.512603 -0.260025 0.000000 0.500000 0.500000
0.116168 0.877050 -0.020390 0.300000 0.600000 0.000000
0.303354 -0.298950 -0.101917 0.000000 0.500000 0.500000
0.073330 0.114042 0.215811 0.000000 0.500000 0.500000
0.274776 -0.533606 -0.180976 0.000000 0.500000 0.500000
-0.021625 -0.094885 -0.287392 0.000000 0.500000 0.500000
0.065569 0.466850 0.157352 0.000000 0.500000 0.500000
0.038821 0.040642 0.235745 0.000000 0.500000 0.500000
0.029933 -0.251112 -0.319189 0.000000 0.500000 0.500000
0.138812 0.643572 -0.026992 0.000000 0.500000 0.500000
0.201041 0.153350 -0.123739 0.000000 0.500000 0.500000
0.275989 -0.533596 -0.214541 0.000000 0.500000 0.500000
-0.159394 0.159274 0.151867 0.000000 0.500000 0.500000
0.312753 -0.360424 0.070576 0.000000 0.500000 0.500000
0.014166 -0.533606 -0.079169 0.000000 0.500000 0.500000
0.103240 0.412968 -0.153706 0.000000 0.500000 0.500000
0.127732 -0.383832 -0.322154 0.000000 0.500000 0.500000
-0.237033 -0.182684 -0.181939 0.000000 0.500000 0.500000
0.281456 -0.412903 0.160585 0.000000 0.500000 0.500000
-0.227983 -0.533606 0.087426 0.000000 0.500000 0.500000
-0.040781 0.390960 -0.183113 0.000000 0.500000 0.500000
-0.230104 0.104505 -0.060664 0.000000 0.500000 0.500000
-0.289784 -0.183610 -0.011835 0.000000 0.500000 0.500000
-0.075619 -0.165071 -0.293231 0.000000 0.500000 0.500000
0.286900 -0.168355 -0.053476 0.000000 0.500000 0.500000
-0.115628 0.706972 -0.038704 0.000000 0.500000 0.500000
-0.277406 -0.164154 0.055733 0.000000 0.500000 0.500000
0.177381 0.447503 0.004089 0.000000 0.500000 0.500000
0.262863 -0.022705 0.004797 0.000000 0.500000 0.500000
0.099813 0.736542 0.078405 0.000000 0.500000 0.500000
-0.052858 -0.533606 0.095194 0.000000 0.500000 0.500000
0.097493 0.998489 -0.042278 0.300000 0.600000 0.000000
-0.202912 -0.533606 0.212885 0.000000 0.500000 0.500000
0.078720 -0.505287 -0.365058 0.000000 0.500000 0.500000
0.318503 -0.433671 -0.134083 0.000000 0.500000 0.500000
0.118619 0.946602 -0.003255 0.300000 0.600000 0.000000
0.001693 0.232374 0.207620 0.000000 0.500000 0.500000
-0.139235 0.560964 0.057536 0.000000 0.500000 0.500000
-0.239505 -0.512594 0.234589 0.000000 0.500000 0.500000
-0.187431 -0.151229 -0.228890 0.000000 0.500000 0.500000
0.088887 0.955962 0.083222 0.300000 0.600000 0.000000
-0.065622 0.925173 -0.087493 0.300000 0.600000 0.000000
0.116406 -0.533606 -0.179816 0.000000 0.500000 0.500000
-0.139628 -0.533606 0.189849 0.000000 0.500000 0.500000
-0.231912 -0.533606 0.021618 0.000000 0.500000 0.500000
0.296100 -0.218764 -0.055549 0.000000 0.500000 0.500000
-0.165524 -0.246620 0.235301 0.000000 0.500000 0.500000
0.143127 0.403746 -0.120214 0.000000 0.500000 0.500000
0.098664 0.410977 0.151387 0.000000 0.500000 0.500000
-0.137031 0.303985 0.138823 0.000000 0.500000 0.500000
-0.083261 -0.068412 0.242898 0.000000 0.500000 0.500000
-0.246155 -0.130595 0.119665 0.000000 0.500000 0.500000
-0.216176 -0.070928 0.145590 0.000000 0.500000 0.500000
0.090251 0.223488 0.189744 0.000000 0.500000 0.500000
0.108509 0.720210 -0.061868 0.000000 0.500000 0.500000
0.131698 -0.533606 -0.142998 0.000000 0.500000 0.500000
0.089435 0.389343 -0.167136 0.000000 0.500000 0.500000
-0.232530 -0.486723 0.234591 0.000000 0.500000 0.500000
0.268914 -0.501766 0.201184 0.000000 0.500000 0.500000
-0.050003 0.093369 0.224165 0.000000 0.500000 0.500000
-0.182796 0.010371 -0.188538 0.000000 0.500000 0.500000
-0.089865 0.975269 -0.062733 0.300000 0.600000 0.000000
0.194967 0.069318 -0.160186 0.000000 0.500000 0.500000
-0.197546 0.290081 0.030466 0.000000 0.500000 0.500000
-0.203231 -0.533606 -0.164835 0.000000 0.500000 0.500000
-0.069348 0.446408 -0.161242 0.000000 0.500000 0.500000
0.251055 -0.532677 0.212549 0.000000 0.500000 0.500000
-0.280156 -0.153219 0.026779 0.000000 0.500000 0.500000
0.266032 -0.260145 0.136420 0.000000 0.500000 0.500000
-0.081780 0.543547 -0.131786 0.000000 0.500000 0.500000
-0.065088 -0.103548 0.254385 0.000000 0.500000 0.500000
-0.323867 -0.533604 -0.003649 0.000000 0.500000 0.500000
0.047276 -0.533606 -0.207450 0.000000 0.500000 0.500000
0.211444 -0.084913 -0.188270 0.000000 0.500000 0.500000
0.053784 0.998822 0.068967 0.300000 0.600000 0.000000
-0.284478 -0.356755 -0.171429 0.000000 0.500000 0.500000
-0.169998 -0.533606 0.202872 0.000000 0.500000 0.500000
-0.114021 0.343052 0.149180 0.000000 0.500000 0.500000
-0.072541 0.139729 -0.227611 0.000000 0.500000 0.500000
0.224422 -0.190880 0.173001 0.000000 0.500000 0.500000
-0.005512 0.935053 -0.110004 0.300000 0.600000 0.000000
0.206549 -0.034417 0.153054 0.000000 0.500000 0.500000
0.156095 -0.380464 -0.309333 0.000000 0.500000 0.500000
-0.098700 0.237108 -0.195053 0.000000 0.500000 0.500000
-0.215255 -0.533371 -0.284332 0.000000 0.500000 0.500000
-0.098006 0.711307 -0.070583 0.000000 0.500000 0.500000
0.019838 0.751432 0.121834 0.000000 0.500000 0.500000
0.033084 -0.304472 0.292414 0.000000 0.500000 0.500000
-0.137187 0.624380 -0.015808 0.000000 0.500000 0.500000
0.103504 -0.379409 -0.331178 0.000000 0.500000 0.500000
-0.045398 -0.422639 -0.352391 0.000000 0.500000 0.500000
-0.204225 0.271032 0.004251 0.000000 0.500000 0.500000
-0.218423 -0.165249 0.169548 0.000000 0.500000 0.500000
-0.167851 -0.181144 -0.251365 0.000000 0.500000 0.500000
0.187781 -0.146206 0.199079 0.000000 0.500000 0.500000
0.270524 -0.076182 0.020565 0.000000 0.500000 0.500000
-0.126590 -0.050955 -0.247257 0.000000 0.500000 0.500000
0.281625 -0.161593 0.049520 0.000000 0.500000 0.500000
0.096243 -0.533606 -0.058267 0.000000 0.500000 0.500000
-0.014194 0.185873 -0.230146 0.000000 0.500000 0.500000
-0.029896 0.676022 -0.125386 0.000000 0.500000 0.500000
0.199687 -0.119771 0.183593 0.000000 0.500000 0.500000
0.107769 0.040375 -0.237134 0.000000 0.500000 0.500000
0.081030 0.617780 0.122119 0.000000 0.500000 0.500000
0.141401 0.427171 0.109262 0.000000 0.500000 0.500000
-0.314045 -0.532496 0.118894 0.000000 0.500000 0.500000
-0.212354 -0.030185 0.139017 0.000000 0.500000 0.500000
0.346677 -0.513578 0.039675 0.000000 0.500000 0.500000
0.256940 -0.135964 -0.135422 0.000000 0.500000 0.500000
-0.180359 0.390177 0.021201 0.000000 0.500000 0.500000
-0.114232 -0.533606 -0.004266 0.000000 0.500000 0.500000
-0.132343 0.490808 -0.098095 0.000000 0.500000 0.500000
-0.041606 -0.354614 0.299218 0.000000 0.500000 0.500000
-0.251635 -0.385558 0.188643 0.000000 0.500000 0.500000
0.226147 -0.156339 -0.191942 0.000000 0.500000 0.500000
-0.126846 0.584895 -0.071759 0.000000 0.500000 0.500000
-0.192786 -0.533606 -0.197550 0.000000 0.500000 0.500000
-0.147063 -0.532035 -0.333110 0.000000 0.500000 0.500000
0.130215 -0.533606 0.120249 0.000000 0.500000 0.500000
0.067226 -0.397255 -0.344389 0.000000 0.500000 0.500000
0.335741 -0.428100 0.007405 0.000000 0.500000 0.500000
-0.068937 0.998838 -0.007482 0.300000 0.600000 0.000000
-0.202153 -0.355587 -0.269655 0.000000 0.500000 0.500000
0.081999 -0.290231 -0.319069 0.000000 0.500000 0.500000
0.261584 -0.167299 -0.139400 0.000000 0.500000 0.500000
-0.098007 -0.418429 -0.340881 0.000000 0.500000 0.500000
-0.159497 -0.404272 -0.312089 0.000000 0.500000 0.500000
-0.147682 0.569683 -0.013486 0.000000 0.500000 0.500000
-0.210886 -0.255951 0.201733 0.000000 0.500000 0.500000
0.229092 -0.533606 0.014774 0.000000 0.500000 0.500000
-0.127375 0.666322 0.030254 0.000000 0.500000 0.500000
0.054539 0.454165 0.163694 0.000000 0.500000 0.500000
0.138573 0.199032 0.165760 0.000000 0.500000 0.500000
-0.025359 0.173499 0.214707 0.000000 0.500000 0.500000
0.108315 0.895303 -0.044296 0.300000 0.600000 0.000000
0.123067 0.743432 -0.004921 0.000000 0.500000 0.500000
-0.009320 0.634390 -0.137235 0.000000 0.500000 0.500000
-0.005559 0.998838 0.003886 0.300000 0.600000 0.000000
-0.107593 -0.533606 -0.257337 0.000000 0.500000 0.500000
0.245096 -0.067869 0.103065 0.000000 0.500000 0.500000
-0.047922 -0.487799 0.320199 0.000000 0.500000 0.500000
-0.180085 -0.280681 -0.267368 0.000000 0.500000 0.500000
-0.133430 -0.533606 0.156743 0.000000 0.500000 0.500000
-0.059297 -0.239990 0.277969 0.000000 0.500000 0.500000
0.154036 0.511773 0.060088 0.000000 0.500000 0.500000
0.298651 -0.507703 -0.209776 0.000000 0.500000 0.500000
0.226882 0.074969 -0.103122 0.000000 0.500000 0.500000
0.173018 0.102927 0.157188 0.000000 0.500000 0.500000
0.180662 -0.225919 0.221426 0.000000 0.500000 0.500000
-0.141035 -0.077242 -0.244885 0.000000 0.500000 0.500000
-0.257526 -0.197004 -0.155371 0.000000 0.500000 0.500000
0.126347 0.524516 -0.103272 0.000000 0.500000 0.500000
0.067247 -0.533606 0.122620 0.000000 0.500000 0.500000
-0.147309 0.419414 -0.101728 0.000000 0.500000 0.500000
0.083744 0.808751 -0.078120 0.300000 0.600000 0.000000
-0.309267 -0.316294 0.035348 0.000000 0.500000 0.500000
0.105794 0.993567 0.054460 0.300000 0.600000 0.000000
0.087061 0.897872 -0.074842 0.300000 0.600000 0.000000
0.066998 -0.496927 0.319324 0.000000 0.500000 0.500000
0.232458 -0.130288 0.146020 0.000000 0.500000 0.500000
0.154252 -0.533606 -0.173149 0.000000 0.500000 0.500000
-0.017974 -0.241333 0.283860 0.000000 0.500000 0.500000
-0.085647 -0.533606 0.219963 0.000000 0.500000 0.500000
-0.023136 0.776282 -0.107746 0.000000 0.500000 0.500000
-0.220939 -0.240588 0.187240 0.000000 0.500000 0.500000
0.003939 -0.533606 -0.274488 0.000000 0.500000 0.500000
0.069251 -0.533606 -0.067792 0.000000 0.500000 0.500000
-0.267400 -0.104317 -0.080448 0.000000 0.500000 0.500000
-0.195393 0.021184 0.146700 0.000000 0.500000 0.500000
0.003244 -0.533606 0.073720 0.000000 0.500000 0.500000
0.020515 -0.533606 -0.157502 0.000000 0.500000 0.500000
-0.287244 -0.360065 0.128171 0.000000 0.500000 0.500000
0.122895 -0.533606 -0.212896 0.000000 0.500000 0.500000
0.108548 -0.027561 0.226722 0.000000 0.500000 0.500000
-0.034759 0.998819 -0.068066 0.300000 0.600000 0.000000
-0.090559 -0.533606 0.252798 0.000000 0.500000 0.500000
0.316486 -0.533581 0.066437 0.000000 0.500000 0.500000
0.044191 -0.533606 0.180722 0.000000 0.500000 0.500000
-0.221910 -0.207168 -0.209364 0.000000 0.500000 0.500000
0.179156 0.066758 -0.179948 0.000000 0.500000 0.500000
-0.109231 0.787880 -0.016043 0.300000 0.600000 0.000000
0.261715 -0.386086 0.178687 0.000000 0.500000 0.500000
-0.225873 -0.533606 0.185428 0.000000 0.500000 0.500000
-0.066338 -0.533606 -0.219482 0.000000 0.500000 0.500000
-0.084254 0.592616 0.119566 0.000000 0.500000 0.500000
-0.014453 -0.268631 -0.324262 0.000000 0.500000 0.500000
0.189313 -0.530868 -0.323004 0.000000 0.500000 0.500000
0.202306 -0.533606 -0.258200 0.000000 0.500000 0.500000
-0.175691 0.213394 0.117802 0.000000 0.500000 0.500000
0.288483 -0.274641 0.092285 0.000000 0.500000 0.500000
0.131402 0.698829 0.007582 0.000000 0.500000 0.500000
0.124005 -0.063517 0.226131 0.000000 0.500000 0.500000
-0.042738 -0.111998 -0.288230 0.000000 0.500000 0.500000
0.199884 0.285972 -0.061415 0.000000 0.500000 0.500000
-0.192456 -0.189423 -0.234729 0.000000 0.500000 0.500000
0.115932 0.913981 -0.021746 0.300000 0.600000 0.000000
0.222822 -0.036830 -0.157537 0.000000 0.500000 0.500000
0.147934 -0.280616 -0.290700 0.000000 0.500000 0.500000
-0.062350 -0.375205 -0.340282 0.000000 0.500000 0.500000
0.189940 0.348674 -0.050710 0.000000 0.500000 0.500000
-0.064587 0.972559 0.097679 0.300000 0.600000 0.000000
-0.049769 -0.243130 -0.314603 0.000000 0.500000 0.500000
-0.008114 0.556460 -0.153509 0.000000 0.500000 0.500000
0.187781 0.198007 -0.126867 0.000000 0.500000 0.500000
0.244292 -0.023123 -0.109658 0.000000 0.500000 0.500000
0.349375 -0.525332 0.015811 0.000000 0.500000 0.500000
0.107374 0.165052 -0.209859 0.000000 0.500000 0.500000
0.275504 -0.245209 0.110004 0.000000 0.500000 0.500000
-0.213667 0.221928 -0.004157 0.000000 0.500000 0.500000
-0.297404 -0.268389 -0.087972 0.000000 0.500000 0.500000
-0.276324 -0.137058 0.033777 0.000000 0.500000 0.500000
0.160363 -0.533606 -0.271435 0.000000 0.500000 0.500000
0.173259 0.403183 -0.068588 0.000000 0.500000 0.500000
-0.296890 -0.490757 -0.204365 0.000000 0.500000 0.500000
0.037967 0.998838 0.030435 0.300000 0.600000 0.000000
0.083540 0.335867 0.173212 0.000000 0.500000 0.500000
0.179510 0.410101 0.038589 0.000000 0.500000 0.500000
0.011273 0.956975 -0.110151 0.300000 0.600000 0.000000
-0.182044 -0.334174 0.241353 0.000000 0.500000 0.500000
0.138638 0.003711 -0.229135 0.000000 0.500000 0.500000
0.278919 -0.325983 -0.173763 0.000000 0.500000 0.500000
0.088778 0.117500 0.209116 0.000000 0.500000 0.500000
-0.226640 0.153706 -0.007702 0.000000 0.500000 0.500000
-0.029884 -0.533606 -0.302066 0.000000 0.500000 0.500000
0.237292 -0.533606 0.105024 0.000000 0.500000 0.500000
0.099766 0.133096 -0.220039 0.000000 0.500000 0.500000
-0.131695 -0.533606 -0.232361 0.000000 0.500000 0.500000
0.084340 0.037519 -0.247544 0.000000 0.500000 0.500000
0.095873 0.850762 -0.064700 0.300000 0.600000 0.000000
-0.198287 0.272730 0.043534 0.000000 0.500000 0.500000
-0.112138 0.285027 0.163184 0.000000 0.500000 0.500000
-0.298843 -0.434522 -0.176552 0.000000 0.500000 0.500000
0.300714 -0.333860 -0.127503 0.000000 0.500000 0.500000
-0.082243 0.342063 0.169115 0.000000 0.500000 0.500000
-0.287025 -0.234670 -0.102735 0.000000 0.500000 0.500000
0.294358 -0.533606 0.030001 0.000000 0.500000 0.500000
0.064965 -0.319604 -0.328641 0.000000 0.500000 0.500000
0.112925 -0.465957 -0.346436 0.000000 0.500000 0.500000
-0.000049 0.307793 -0.205532 0.000000 0.500000 0.500000
0.346847 -0.512931 -0.084548 0.000000 0.500000 0.500000
-0.221522 -0.337972 -0.249686 0.000000 0.500000 0.500000
-0.265205 -0.267141 0.135229 0.000000 0.500000 0.500000
-0.024486 -0.431492 0.314096 0.000000 0.500000 0.500000
0.331419 -0.400235 -0.042388 0.000000 0.500000 0.500000
0.057047 -0.013119 -0.265943 0.000000 0.500000 0.500000
0.252179 -0.081721 0.092447 0.000000 0.500000 0.500000
-0.199679 0.192508 -0.097796 0.000000 0.500000 0.500000
0.256301 -0.419151 -0.236998 0.000000 0.500000 0.500000
0.303780 -0.531228 0.156498 0.000000 0.500000 0.500000
0.268546 -0.353366 -0.199677 0.000000 0.500000 0.500000
-0.249006 0.033207 -0.005328 0.000000 0.500000 0.500000
-0.039452 -0.274079 0.286304 0.000000 0.500000 0.500000
-0.298406 -0.236778 -0.039672 0.000000 0.500000 0.500000
-0.005752 -0.533606 0.109886 0.000000 0.500000 0.500000
0.093981 0.496836 0.137645 0.000000 0.500000 0.500000
0.325850 -0.368949 -0.040750 0.000000 0.500000 0.500000
-0.160621 0.215293 0.136632 0.000000 0.500000 0.500000
0.177866 0.434931 -0.026925 0.000000 0.500000 0.500000
-0.280847 -0.518820 -0.234103 0.000000 0.500000 0.500000
-0.012824 0.329280 0.190930 0.000000 0.500000 0.500000
0.143213 0.599946 -0.041976 0.000000 0.500000 0.500000
-0.009696 0.826537 0.119306 0.300000 0.600000 0.000000
0.190877 0.313306 0.059981 0.000000 0.500000 0.500000
-0.046439 -0.414113 0.308209 0.000000 0.500000 0.500000
0.117581 0.957209 0.021835 0.300000 0.600000 0.000000
0.189768 -0.533606 0.107158 0.000000 0.500000 0.500000
-0.138533 -0.167584 0.236831 0.000000 0.500000 0.500000
-0.108131 -0.320310 0.277536 0.000000 0.500000 0.500000
0.104341 0.620234 -0.099687 0.000000 0.500000 0.500000
-0.254794 -0.496216 -0.260832 0.000000 0.500000 0.500000
0.214949 0.209205 -0.057637 0.000000 0.500000 0.500000
-0.090879 -0.112233 0.247499 0.000000 0.500000 0.500000
-0.080205 0.435510 0.153006 0.000000 0.500000 0.500000
-0.076677 0.701204 0.102200 0.000000 0.500000 0.500000
0.068957 0.772649 -0.090922 0.300000 0.600000 0.000000
-0.050725 0.683507 -0.115950 0.000000 0.500000 0.500000
-0.296474 -0.250888 -0.073936 0.000000 0.500000 0.500000
-0.168174 0.222685 -0.138983 0.000000 0.500000 0.500000
-0.269636 -0.086415 -0.040670 0.000000 0.500000 0.500000
0.225467 0.132521 -0.074835 0.000000 0.500000 0.500000
-0.124868 0.694707 0.006150 0.000000 0.500000 0.500000
0.326910 -0.505835 0.104214 0.000000 0.500000 0.500000
-0.151114 0.557244 0.005020 0.000000 0.500000 0.500000
0.005471 0.893299 0.119921 0.300000 0.600000 0.000000
0.059881 0.866517 0.105510 0.300000 0.600000 0.000000
-0.098315 -0.002222 0.224872 0.000000 0.500000 0.500000
0.195394 0.346999 0.007058 0.000000 0.500000 0.500000
0.135848 -0.329794 -0.306848 0.000000 0.500000 0.500000
0.320735 -0.392309 0.064187 0.000000 0.500000 0.500000
0.012828 0.795749 0.119709 0.300000 0.600000 0.000000
-0.042630 0.286835 -0.204855 0.000000 0.500000 0.500000
-0.089341 0.940864 -0.063479 0.300000 0.600000 0.000000
-0.082424 0.219484 0.190954 0.000000 0.500000 0.500000
0.087643 0.998728 0.037655 0.300000 0.600000 0.000000
0.053691 0.090047 -0.245111 0.000000 0.500000 0.500000
0.012828 -0.533606 -0.241419 0.000000 0.500000 0.500000
-0.060803 0.841883 0.100409 0.300000 0.600000 0.000000
-0.180578 0.182420 0.120221 0.000000 0.500000 0.500000
0.232289 0.010835 -0.121596 0.000000 0.500000 0.500000
-0.313182 -0.366849 -0.105148 0.000000 0.500000 0.500000
-0.190048 -0.253748 -0.252927 0.000000 0.500000 0.500000
0.031057 0.095233 0.227509 0.000000 0.500000 0.500000
-0.048975 0.300665 0.189761 0.000000 0.500000 0.500000
-0.045877 -0.296908 -0.326131 0.000000 0.500000 0.500000
-0.101476 0.303451 -0.177727 0.000000 0.500000 0.500000
0.205952 0.041409 0.132978 0.000000 0.500000 0.500000
-0.106213 0.013547 0.218760 0.000000 0.500000 0.500000
-0.238999 -0.533565 0.211281 0.000000 0.500000 0.500000
0.012859 0.702731 -0.123407 0.000000 0.500000 0.500000
-0.134829 -0.533606 0.121116 0.000000 0.500000 0.500000
0.078805 -0.351341 -0.332663 0.000000 0.500000 0.500000
-0.148373 0.411175 0.097172 0.000000 0.500000 0.500000
-0.162818 0.089230 -0.185818 0.000000 0.500000 0.500000
0.241044 0.067331 -0.065491 0.000000 0.500000 0.500000
0.007700 0.814171 0.119857 0.300000 0.600000 0.000000
0.044801 0.947656 -0.103023 0.300000 0.600000 0.000000
-0.268249 -0.533579 -0.217227 0.000000 0.500000 0.500000
0.107846 -0.417370 -0.337907 0.000000 0.500000 0.500000
0.122114 0.400852 0.136305 0.000000 0.500000 0.500000
-0.157134 0.191169 -0.162607 0.000000 0.500000 0.500000
-0.316325 -0.331876 -0.041523 0.000000 0.500000 0.500000
-0.189237 0.129949 -0.141920 0.000000 0.500000 0.500000
0.181046 -0.533606 -0.179493 0.000000 0.500000 0.500000
-0.041601 0.366691 0.180121 0.000000 0.500000 0.500000
0.245379 0.069796 -0.032646 0.000000 0.500000 0.500000
0.100482 0.192852 -0.206529 0.000000 0.500000 0.500000
0.039123 0.075715 -0.250344 0.000000 0.500000 0.500000
0.137632 0.489403 -0.099567 0.000000 0.500000 0.500000
-0.009370 0.732769 0.124615 0.000000 0.500000 0.500000
0.186257 -0.043967 -0.204627 0.000000 0.500000 0.500000
-0.180290 0.359759 0.050459 0.000000 0.500000 0.500000
-0.210470 0.214775 -0.051043 0.000000 0.500000 0.500000
-0.340615 -0.454985 -0.013731 0.000000 0.500000 0.500000
0.164707 -0.331330 0.254913 0.000000 0.500000 0.500000
0.100070 0.578190 -0.114665 0.000000 0.500000 0.500000
0.102108 -0.192659 -0.290838 0.000000 0.500000 0.500000
0.071613 -0.533606 0.218162 0.000000 0.500000 0.500000
0.035191 -0.519861 0.327265 0.000000 0.500000 0.500000
0.147104 -0.019764 -0.228590 0.000000 0.500000 0.500000
0.299737 -0.273241 -0.094134 0.000000 0.500000 0.500000
0.094824 -0.301179 -0.317484 0.000000 0.500000 0.500000
0.107083 -0.533606 0.010287 0.000000 0.500000 0.500000
-0.103037 0.257379 -0.187913 0.000000 0.500000 0.500000
0.235382 -0.077339 -0.153860 0.000000 0.500000 0.500000
