0.024343 0.011532 0.223253 0.600000 0.000000 0.300000
-0.811988 0.000640 -0.403397 0.300000 0.600000 0.000000
-0.446778 -0.017841 -0.254537 0.300000 0.600000 0.000000
-0.146779 0.019120 0.020706 0.500000 0.000000 0.500000
0.175450 -0.027671 0.148352 0.600000 0.000000 0.300000
0.124011 -0.027671 0.214144 0.600000 0.000000 0.300000
-0.398317 0.000640 0.100310 0.500000 0.000000 0.500000
-0.587596 -0.015604 -0.196590 0.300000 0.600000 0.000000
-0.008074 -0.017841 -0.021211 0.300000 0.600000 0.000000
0.153516 -0.009191 -0.382401 0.000000 0.500000 0.500000
-0.495588 -0.017841 -0.221078 0.300000 0.600000 0.000000
0.073392 -0.027671 0.114330 0.600000 0.000000 0.300000
0.040401 0.006910 0.308578 0.600000 0.000000 0.300000
-0.589130 0.019120 0.305498 0.500000 0.000000 0.500000
-0.490656 0.000640 -0.173465 0.300000 0.600000 0.000000
0.066430 0.030012 -0.285007 0.000000 0.500000 0.500000
0.178561 -0.008650 -0.515670 0.000000 0.500000 0.500000
0.349272 -0.027207 0.258186 0.600000 0.000000 0.300000
-0.350764 0.019120 0.066788 0.500000 0.000000 0.500000
0.117540 0.030012 -0.317649 0.000000 0.500000 0.500000
0.465497 -0.008033 -0.560808 0.000000 0.500000 0.500000
-0.266659 0.019120 0.088128 0.500000 0.000000 0.500000
0.370880 0.029869 -0.596868 0.000000 0.500000 0.500000
0.378937 -0.025518 0.559673 0.600000 0.000000 0.300000
-0.040785 0.019120 0.038703 0.500000 0.000000 0.500000
-0.273945 0.000640 -0.058461 0.300000 0.600000 0.000000
0.208626 -0.027671 0.244507 0.600000 0.000000 0.300000
0.082509 -0.009191 -0.258573 0.000000 0.500000 0.500000
0.520020 -0.008634 -0.485316 0.000000 0.500000 0.500000
0.095621 0.011532 0.377036 0.600000 0.000000 0.300000
-0.062612 0.000640 -0.129098 0.300000 0.600000 0.000000
0.340665 -0.003418 -0.299134 0.000000 0.500000 0.500000
-0.318842 0.000640 0.158897 0.500000 0.000000 0.500000
-0.574743 0.000733 0.155620 0.500000 0.000000 0.500000
-0.099033 0.000640 0.104338 0.500000 0.000000 0.500000
0.061245 0.030012 -0.176137 0.000000 0.500000 0.500000
0.360826 0.005171 0.178970 0.600000 0.000000 0.300000
-0.640932 -0.015290 -0.228614 0.300000 0.600000 0.000000
0.164502 0.030012 -0.347788 0.000000 0.500000 0.500000
0.007460 0.011532 0.148878 0.600000 0.000000 0.300000
0.496619 0.026216 -0.295083 0.000000 0.500000 0.500000
-0.285586 0.008465 -0.001606 0.500000 0.000000 0.500000
0.222908 0.030012 -0.501422 0.000000 0.500000 0.500000
0.304904 -0.026699 0.546478 0.600000 0.000000 0.300000
0.120735 -0.009191 -0.222711 0.000000 0.500000 0.500000
0.021589 -0.009191 -0.222091 0.000000 0.500000 0.500000
0.421527 0.030012 -0.266101 0.000000 0.500000 0.500000
0.467494 0.010566 0.529864 0.600000 0.000000 0.300000
0.427599 -0.027671 0.246950 0.600000 0.000000 0.300000
0.151627 0.030012 -0.156797 0.000000 0.500000 0.500000
-0.721590 0.000640 0.306166 0.500000 0.000000 0.500000
0.433170 -0.008433 -0.299656 0.000000 0.500000 0.500000
0.228598 -0.009191 -0.323458 0.000000 0.500000 0.500000
-0.120530 -0.017841 -0.047114 0.300000 0.600000 0.000000
0.039708 -0.017841 0.053515 0.300000 0.600000 0.000000
-0.010257 0.019120 -0.103646 0.500000 0.000000 0.500000
0.057616 0.011532 0.264028 0.600000 0.000000 0.300000
0.220493 0.030012 -0.384095 0.000000 0.500000 0.500000
0.157308 0.030012 -0.285983 0.000000 0.500000 0.500000
-0.840445 0.019120 0.352387 0.500000 0.000000 0.500000
0.288660 -0.008614 -0.568022 0.000000 0.500000 0.500000
0.231330 -0.027671 0.491128 0.600000 0.000000 0.300000
-0.446254 0.019120 0.236584 0.500000 0.000000 0.500000
0.300605 -0.027671 0.245571 0.600000 0.000000 0.300000
0.228151 -0.009191 -0.553396 0.000000 0.500000 0.500000
0.178926 -0.000532 0.504081 0.600000 0.000000 0.300000
-0.881602 -0.017841 -0.382059 0.300000 0.600000 0.000000
0.000901 0.015548 -0.255360 0.000000 0.500000 0.500000
0.083138 -0.027671 0.159744 0.600000 0.000000 0.300000
0.189752 -0.009191 -0.170150 0.000000 0.500000 0.500000
-0.361635 0.000640 -0.251979 0.300000 0.600000 0.000000
-0.720260 -0.017841 -0.280619 0.300000 0.600000 0.000000
-0.216431 -0.005739 -0.214406 0.300000 0.600000 0.000000
0.105228 0.011532 0.126929 0.600000 0.000000 0.300000
0.094834 0.000640 0.030813 0.300000 0.600000 0.000000
0.132308 0.030012 -0.414262 0.000000 0.500000 0.500000
-0.571609 0.000640 -0.282168 0.300000 0.600000 0.000000
-0.297752 0.000640 -0.206873 0.300000 0.600000 0.000000
0.213590 0.011532 0.308739 0.600000 0.000000 0.300000
0.073518 -0.009191 -0.145845 0.000000 0.500000 0.500000
-0.517519 0.000640 -0.310813 0.300000 0.600000 0.000000
-0.158865 0.016775 0.165985 0.500000 0.000000 0.500000
-0.234012 0.019120 0.151609 0.500000 0.000000 0.500000
0.068781 0.011532 0.189373 0.600000 0.000000 0.300000
0.490500 -0.022695 0.258477 0.600000 0.000000 0.300000
0.533875 -0.027333 0.324306 0.600000 0.000000 0.300000
0.085527 0.011532 0.325434 0.600000 0.000000 0.300000
0.302964 0.030012 -0.214530 0.000000 0.500000 0.500000
0.186486 -0.009191 -0.294040 0.000000 0.500000 0.500000
0.520605 -0.027664 0.465963 0.600000 0.000000 0.300000
0.006914 0.030012 -0.156961 0.000000 0.500000 0.500000
-0.104215 0.019120 -0.069116 0.500000 0.000000 0.500000
0.229461 -0.027671 0.285332 0.600000 0.000000 0.300000
0.401311 0.011532 0.570836 0.600000 0.000000 0.300000
-0.568307 0.019120 0.259443 0.500000 0.000000 0.500000
0.128457 -0.017841 0.053112 0.300000 0.600000 0.000000
-0.013555 0.018876 0.106515 0.500000 0.000000 0.500000
0.535054 0.029524 -0.353612 0.000000 0.500000 0.500000
0.434260 0.010969 0.269629 0.600000 0.000000 0.300000
-0.200519 0.000640 0.024562 0.500000 0.000000 0.500000
0.277048 0.011532 0.247340 0.600000 0.000000 0.300000
-0.148779 0.000640 0.073521 0.500000 0.000000 0.500000
0.099120 0.030012 -0.150573 0.000000 0.500000 0.500000
0.026346 0.024835 -0.308576 0.000000 0.500000 0.500000
-0.134644 0.000640 -0.106246 0.300000 0.600000 0.000000
0.532334 0.030012 -0.405818 0.000000 0.500000 0.500000
0.100041 0.011532 0.277732 0.600000 0.000000 0.300000
0.078610 -0.027671 0.240266 0.600000 0.000000 0.300000
0.259921 0.011532 0.175731 0.600000 0.000000 0.300000
0.176351 0.011532 0.172737 0.600000 0.000000 0.300000
0.085013 -0.017841 -0.014029 0.300000 0.600000 0.000000
0.530798 0.011532 0.379596 0.600000 0.000000 0.300000
-0.174524 -0.017841 -0.059101 0.300000 0.600000 0.000000
0.086279 0.030012 -0.227729 0.000000 0.500000 0.500000
-0.067971 0.019120 0.079744 0.500000 0.000000 0.500000
0.377459 0.030012 -0.260880 0.000000 0.500000 0.500000
0.126001 -0.009191 -0.286533 0.000000 0.500000 0.500000
0.152828 -0.027671 0.331875 0.600000 0.000000 0.300000
-0.709241 0.000640 0.238926 0.500000 0.000000 0.500000
0.144334 0.011532 0.380735 0.600000 0.000000 0.300000
0.142768 -0.027671 0.430566 0.600000 0.000000 0.300000
-0.305815 0.000640 0.106853 0.500000 0.000000 0.500000
0.229208 0.023983 -0.452908 0.000000 0.500000 0.500000
0.396100 -0.009004 -0.594780 0.000000 0.500000 0.500000
-0.080991 -0.012787 0.053401 0.300000 0.600000 0.000000
-0.648948 0.019120 0.245819 0.500000 0.000000 0.500000
-0.030343 0.019120 -0.047942 0.500000 0.000000 0.500000
0.253691 0.011476 0.544408 0.600000 0.000000 0.300000
0.059984 0.019120 -0.026406 0.500000 0.000000 0.500000
0.166998 -0.009191 -0.473407 0.000000 0.500000 0.500000
0.137945 0.011532 0.233100 0.600000 0.000000 0.300000
0.247526 -0.009036 -0.176688 0.000000 0.500000 0.500000
0.054816 0.019120 -0.082809 0.500000 0.000000 0.500000
0.396920 -0.009191 -0.266164 0.000000 0.500000 0.500000
0.535698 0.011532 0.439611 0.600000 0.000000 0.300000
-0.362553 0.019120 0.220580 0.500000 0.000000 0.500000
0.218272 -0.027671 0.371987 0.600000 0.000000 0.300000
-0.641335 -0.017841 -0.270983 0.300000 0.600000 0.000000
0.342599 -0.009191 -0.606222 0.000000 0.500000 0.500000
0.451040 0.030012 -0.600889 0.000000 0.500000 0.500000
0.209511 -0.027671 0.183379 0.600000 0.000000 0.300000
0.110132 -0.009191 -0.345411 0.000000 0.500000 0.500000
0.189244 -0.009191 -0.429363 0.000000 0.500000 0.500000
0.116259 0.025386 -0.458396 0.000000 0.500000 0.500000
0.242138 0.030012 -0.558431 0.000000 0.500000 0.500000
-0.458018 -0.005220 -0.292892 0.300000 0.600000 0.000000
0.329167 -0.016819 0.161483 0.600000 0.000000 0.300000
0.489819 -0.008638 -0.340340 0.000000 0.500000 0.500000
-0.617874 -0.013141 -0.344826 0.300000 0.600000 0.000000
0.054057 0.009271 0.103535 0.600000 0.000000 0.300000
0.399197 0.011532 0.230114 0.600000 0.000000 0.300000
0.135697 -0.009191 -0.183648 0.000000 0.500000 0.500000
0.042090 -0.017841 -0.033225 0.300000 0.600000 0.000000
0.547974 -0.027671 0.391350 0.600000 0.000000 0.300000
0.488005 0.011532 0.282047 0.600000 0.000000 0.300000
-0.093142 0.019120 0.020038 0.500000 0.000000 0.500000
0.264295 0.030012 -0.262988 0.000000 0.500000 0.500000
0.496895 0.030012 -0.559546 0.000000 0.500000 0.500000
0.118761 -0.027671 0.304355 0.600000 0.000000 0.300000
0.042214 -0.027671 0.155090 0.600000 0.000000 0.300000
-0.266158 -0.017841 -0.225664 0.300000 0.600000 0.000000
0.262829 0.010598 0.305375 0.600000 0.000000 0.300000
0.189371 0.011532 0.394068 0.600000 0.000000 0.300000
0.002544 -0.017841 0.074983 0.300000 0.600000 0.000000
0.287412 -0.027671 0.175502 0.600000 0.000000 0.300000
0.121496 -0.017841 0.095834 0.300000 0.600000 0.000000
0.169449 0.011532 0.302742 0.600000 0.000000 0.300000
-0.229930 0.000640 0.066284 0.500000 0.000000 0.500000
0.523451 0.011532 0.484162 0.600000 0.000000 0.300000
0.236955 -0.014209 0.445520 0.600000 0.000000 0.300000
0.273313 -0.009191 -0.273748 0.000000 0.500000 0.500000
0.150960 0.030012 -0.236711 0.000000 0.500000 0.500000
0.051862 -0.009191 -0.330257 0.000000 0.500000 0.500000
0.011317 -0.026895 0.218363 0.600000 0.000000 0.300000
0.415098 -0.027671 0.579208 0.600000 0.000000 0.300000
0.019031 0.019120 0.036086 0.500000 0.000000 0.500000
0.020474 0.025552 -0.004873 0.500000 0.500000 0.000000
0.056953 0.018895 0.051610 0.500000 0.000000 0.500000
0.461895 -0.027671 0.550267 0.600000 0.000000 0.300000
0.408529 0.030012 -0.612349 0.000000 0.500000 0.500000
-0.352369 -0.017841 -0.216272 0.300000 0.600000 0.000000
0.146248 -0.027671 0.176506 0.600000 0.000000 0.300000
0.258354 0.029876 -0.180291 0.000000 0.500000 0.500000
-0.650508 0.000640 0.282119 0.500000 0.000000 0.500000
-0.017909 -0.019401 0.142971 0.600000 0.000000 0.300000
-0.479940 0.014238 0.120518 0.500000 0.000000 0.500000
-0.123434 -0.000056 -0.184193 0.300000 0.600000 0.000000
-0.331586 0.000640 -0.071376 0.300000 0.600000 0.000000
-0.372984 0.019120 0.139058 0.500000 0.000000 0.500000
0.251196 -0.009191 -0.237469 0.000000 0.500000 0.500000
0.178306 0.030012 -0.504685 0.000000 0.500000 0.500000
0.109200 -0.009191 -0.407007 0.000000 0.500000 0.500000
0.519629 0.029906 -0.496594 0.000000 0.500000 0.500000
0.208179 0.030012 -0.208983 0.000000 0.500000 0.500000
-0.416123 0.000640 -0.187791 0.300000 0.600000 0.000000
0.140894 0.019120 -0.116820 0.500000 0.000000 0.500000
0.332638 0.030012 -0.610541 0.000000 0.500000 0.500000
0.384655 -0.027671 0.239302 0.600000 0.000000 0.300000
0.530143 -0.009191 -0.413096 0.000000 0.500000 0.500000
0.323292 -0.008662 -0.201827 0.000000 0.500000 0.500000
0.281127 0.030012 -0.576024 0.000000 0.500000 0.500000
-0.210817 -0.017841 -0.030056 0.300000 0.600000 0.000000
-0.898881 -0.002479 -0.422803 0.300000 0.600000 0.000000
0.211399 0.011532 0.361032 0.600000 0.000000 0.300000
-0.132653 0.000640 -0.011491 0.300000 0.600000 0.000000
0.260435 -0.027671 0.249501 0.600000 0.000000 0.300000
0.080601 0.030012 -0.336200 0.000000 0.500000 0.500000
-0.266293 0.000640 -0.151490 0.300000 0.600000 0.000000
0.245498 0.011532 0.504072 0.600000 0.000000 0.300000
0.548441 0.030012 -0.466251 0.000000 0.500000 0.500000
-0.005099 -0.008631 -0.181468 0.000000 0.500000 0.500000
0.078425 0.030012 -0.378012 0.000000 0.500000 0.500000
-0.612684 0.019120 0.220723 0.500000 0.000000 0.500000
0.130208 -0.027671 0.393224 0.600000 0.000000 0.300000
-0.842208 0.002418 0.388016 0.500000 0.000000 0.500000
-0.255401 -0.017841 -0.087740 0.300000 0.600000 0.000000
0.481035 -0.009191 -0.302073 0.000000 0.500000 0.500000
0.085057 -0.027671 0.327448 0.600000 0.000000 0.300000
-0.057922 0.019120 -0.002810 0.500000 0.000000 0.500000
0.213996 -0.027105 0.133753 0.600000 0.000000 0.300000
0.181765 -0.015564 0.110817 0.300000 0.600000 0.000000
0.296140 0.011410 0.547090 0.600000 0.000000 0.300000
0.091356 -0.026172 0.386333 0.600000 0.000000 0.300000
-0.381766 -0.017841 -0.145560 0.300000 0.600000 0.000000
-0.134184 0.019120 0.114716 0.500000 0.000000 0.500000
0.230598 0.030012 -0.335148 0.000000 0.500000 0.500000
0.252465 0.006041 0.136401 0.600000 0.000000 0.300000
-0.792571 0.000640 0.286388 0.500000 0.000000 0.500000
-0.565979 0.000640 -0.225344 0.300000 0.600000 0.000000
0.535225 0.011494 0.331997 0.600000 0.000000 0.300000
0.501773 -0.027671 0.298758 0.600000 0.000000 0.300000
0.217359 -0.009191 -0.513852 0.000000 0.500000 0.500000
-0.389190 0.000640 0.196745 0.500000 0.000000 0.500000
0.550879 -0.027671 0.430832 0.600000 0.000000 0.300000
0.095688 0.019120 -0.003173 0.500000 0.000000 0.500000
0.501000 -0.027671 0.527551 0.600000 0.000000 0.300000
-0.516054 -0.017647 -0.150815 0.300000 0.600000 0.000000
0.189634 0.030012 -0.169828 0.000000 0.500000 0.500000
0.311726 -0.009191 -0.271579 0.000000 0.500000 0.500000
-0.771799 0.019117 0.365139 0.500000 0.000000 0.500000
-0.326213 0.000640 -0.133809 0.300000 0.600000 0.000000
0.340484 0.030012 -0.240482 0.000000 0.500000 0.500000
0.499749 0.030012 -0.338787 0.000000 0.500000 0.500000
0.289548 0.029750 -0.309022 0.000000 0.500000 0.500000
-0.441581 0.019120 0.119404 0.500000 0.000000 0.500000
0.536802 -0.008901 -0.360369 0.000000 0.500000 0.500000
0.179791 0.011532 0.460710 0.600000 0.000000 0.300000
-0.291692 0.019120 0.179951 0.500000 0.000000 0.500000
-0.100227 0.000640 -0.137490 0.300000 0.600000 0.000000
0.261966 -0.027671 0.543938 0.600000 0.000000 0.300000
0.224220 -0.027671 0.325729 0.600000 0.000000 0.300000
0.367235 -0.005475 -0.214844 0.000000 0.500000 0.500000
-0.042766 -0.017841 -0.102613 0.300000 0.600000 0.000000
0.180224 -0.027671 0.272794 0.600000 0.000000 0.300000
-0.165101 0.019120 -0.017678 0.500000 0.000000 0.500000
-0.756299 0.000640 -0.358807 0.300000 0.600000 0.000000
0.455074 0.030012 -0.287521 0.000000 0.500000 0.500000
-0.446636 -0.017841 -0.159998 0.300000 0.600000 0.000000
0.371742 -0.027671 0.199384 0.600000 0.000000 0.300000
0.032263 0.030012 -0.201783 0.000000 0.500000 0.500000
-0.731966 -0.017841 -0.318081 0.300000 0.600000 0.000000
0.366222 0.011532 0.586327 0.600000 0.000000 0.300000
-0.093221 -0.017841 -0.015697 0.300000 0.600000 0.000000
0.183669 -0.027671 0.353641 0.600000 0.000000 0.300000
0.183262 -0.009191 -0.225963 0.000000 0.500000 0.500000
0.088884 -0.027671 0.199574 0.600000 0.000000 0.300000
-0.175505 0.000640 -0.137508 0.300000 0.600000 0.000000
0.043664 -0.027294 0.294236 0.600000 0.000000 0.300000
0.017083 -0.017841 -0.060718 0.300000 0.600000 0.000000
0.505450 -0.008940 -0.564968 0.000000 0.500000 0.500000
0.217705 0.030012 -0.275874 0.000000 0.500000 0.500000
0.098372 -0.009191 -0.173282 0.000000 0.500000 0.500000
0.505711 0.011532 0.519573 0.600000 0.000000 0.300000
0.139322 0.011532 0.270033 0.600000 0.000000 0.300000
-0.017551 0.019120 0.067326 0.500000 0.000000 0.500000
0.438648 -0.009191 -0.591712 0.000000 0.500000 0.500000
-0.195103 0.019120 0.106736 0.500000 0.000000 0.500000
-0.752035 0.019120 0.296858 0.500000 0.000000 0.500000
0.537059 -0.009000 -0.517933 0.000000 0.500000 0.500000
-0.205561 0.000640 -0.110365 0.300000 0.600000 0.000000
0.109445 0.000640 -0.075397 0.500000 0.000000 0.500000
0.567007 0.021558 -0.418649 0.000000 0.500000 0.500000
0.043356 -0.027671 0.250041 0.600000 0.000000 0.300000
0.339779 -0.027671 0.564718 0.600000 0.000000 0.300000
0.500112 0.011532 0.316412 0.600000 0.000000 0.300000
-0.506433 0.000640 0.254773 0.500000 0.000000 0.500000
0.354337 0.028887 -0.289524 0.000000 0.500000 0.500000
-0.459317 0.019120 0.193000 0.500000 0.000000 0.500000
-0.272340 -0.017841 -0.120489 0.300000 0.600000 0.000000
-0.017516 -0.018722 0.105786 0.600000 0.000000 0.300000
0.022622 -0.017841 -0.000102 0.300000 0.600000 0.000000
-0.191176 0.019120 0.147386 0.500000 0.000000 0.500000
-0.071279 0.019120 -0.048796 0.500000 0.000000 0.500000
-0.526658 -0.017841 -0.281053 0.300000 0.600000 0.000000
0.447025 0.011532 0.559665 0.600000 0.000000 0.300000
-0.427065 0.000640 0.070160 0.500000 0.000000 0.500000
0.092227 0.011532 0.161498 0.600000 0.000000 0.300000
-0.442611 -0.013756 -0.114235 0.300000 0.600000 0.000000
-0.803701 0.019120 0.333801 0.500000 0.000000 0.500000
-0.839266 -0.017841 -0.386955 0.300000 0.600000 0.000000
-0.329856 -0.017841 -0.188343 0.300000 0.600000 0.000000
0.026116 0.011532 0.187520 0.600000 0.000000 0.300000
-0.544551 0.000640 0.207124 0.500000 0.000000 0.500000
-0.580855 0.000640 0.230672 0.500000 0.000000 0.500000
0.311239 0.011521 0.579323 0.600000 0.000000 0.300000
0.190366 -0.027671 0.476942 0.600000 0.000000 0.300000
0.303669 -0.008766 0.288624 0.600000 0.000000 0.300000
0.168432 -0.027671 0.239076 0.600000 0.000000 0.300000
0.201574 0.011532 0.431409 0.600000 0.000000 0.300000
0.356882 0.006542 0.265781 0.600000 0.000000 0.300000
-0.587342 0.000640 -0.318026 0.300000 0.600000 0.000000
0.421450 0.024719 -0.303303 0.000000 0.500000 0.500000
-0.259744 0.000640 0.167254 0.500000 0.000000 0.500000
-0.689605 -0.017841 -0.337602 0.300000 0.600000 0.000000
0.230783 -0.008815 -0.379542 0.000000 0.500000 0.500000
0.260227 0.011532 0.216288 0.600000 0.000000 0.300000
0.143092 0.006873 0.460358 0.600000 0.000000 0.300000
0.067079 0.000640 -0.112766 0.500000 0.000000 0.500000
-0.620116 0.019120 0.285291 0.500000 0.000000 0.500000
0.152130 0.030012 -0.443115 0.000000 0.500000 0.500000
0.147204 0.000640 0.154929 0.300000 0.600000 0.000000
0.266913 -0.009191 -0.205644 0.000000 0.500000 0.500000
-0.649895 -0.017841 -0.305195 0.300000 0.600000 0.000000
-0.316199 0.019120 0.076795 0.500000 0.000000 0.500000
-0.252541 0.019120 -0.003473 0.500000 0.000000 0.500000
0.430074 -0.007596 -0.253802 0.000000 0.500000 0.500000
0.218175 0.029834 -0.420464 0.000000 0.500000 0.500000
-0.239031 -0.017841 -0.165524 0.300000 0.600000 0.000000
0.127341 -0.005522 -0.469692 0.000000 0.500000 0.500000
-0.263516 0.000640 0.050433 0.500000 0.000000 0.500000
-0.731789 -0.010853 -0.381834 0.300000 0.600000 0.000000
0.034359 0.030012 -0.271981 0.000000 0.500000 0.500000
0.022884 -0.027671 0.185445 0.600000 0.000000 0.300000
-0.040852 -0.017841 -0.034539 0.300000 0.600000 0.000000
0.431823 0.006560 0.219022 0.600000 0.000000 0.300000
-0.027190 0.000640 0.010327 0.300000 0.600000 0.000000
0.015755 0.006160 -0.132201 0.500000 0.000000 0.500000
-0.491949 0.019120 0.177277 0.500000 0.000000 0.500000
-0.154563 -0.015313 0.022989 0.300000 0.600000 0.000000
0.453580 0.025475 -0.562176 0.000000 0.500000 0.500000
0.314043 0.011532 0.174710 0.600000 0.000000 0.300000
0.193446 -0.009191 -0.394329 0.000000 0.500000 0.500000
0.514964 -0.021845 0.381063 0.600000 0.000000 0.300000
0.020026 0.019120 -0.087883 0.500000 0.000000 0.500000
0.265011 -0.007690 -0.335078 0.000000 0.500000 0.500000
0.152076 -0.027671 0.297238 0.600000 0.000000 0.300000
-0.765776 -0.017841 -0.331825 0.300000 0.600000 0.000000
-0.678708 0.019120 0.308579 0.500000 0.000000 0.500000
-0.798782 -0.017772 -0.317460 0.300000 0.600000 0.000000
0.240599 0.001406 -0.489917 0.000000 0.500000 0.500000
0.226707 -0.027671 0.215956 0.600000 0.000000 0.300000
0.201153 -0.001193 0.274616 0.300000 0.600000 0.000000
-0.439097 0.000640 -0.223525 0.300000 0.600000 0.000000
-0.690980 -0.000527 -0.368577 0.300000 0.600000 0.000000
0.193822 0.011532 0.219560 0.600000 0.000000 0.300000
0.212723 -0.027671 0.405230 0.600000 0.000000 0.300000
0.114033 0.011532 0.343407 0.600000 0.000000 0.300000
-0.246898 -0.017841 -0.050167 0.300000 0.600000 0.000000
0.020562 0.011532 0.117923 0.600000 0.000000 0.300000
0.034301 -0.017841 0.093596 0.300000 0.600000 0.000000
0.212164 0.011402 0.512373 0.600000 0.000000 0.300000
-0.542897 0.006631 0.146858 0.500000 0.000000 0.500000
0.342598 0.009689 -0.635162 0.000000 0.500000 0.500000
-0.817152 0.000640 -0.370007 0.300000 0.600000 0.000000
-0.049911 -0.012339 -0.157091 0.300000 0.600000 0.000000
-0.724643 0.019120 0.277816 0.500000 0.000000 0.500000
0.158088 0.011532 0.200641 0.600000 0.000000 0.300000
0.192270 -0.009191 -0.326879 0.000000 0.500000 0.500000
-0.505979 0.000640 0.153340 0.500000 0.000000 0.500000
-0.189152 0.005601 -0.040528 0.500000 0.000000 0.500000
0.108746 -0.027671 0.254380 0.600000 0.000000 0.300000
-0.342205 -0.017841 -0.096957 0.300000 0.600000 0.000000
0.282269 0.023897 -0.608643 0.000000 0.500000 0.500000
0.300649 -0.022939 0.587895 0.600000 0.000000 0.300000
-0.614008 0.000640 -0.267297 0.300000 0.600000 0.000000
-0.382754 0.019120 0.075634 0.500000 0.000000 0.500000
-0.083851 0.000640 0.133850 0.500000 0.000000 0.500000
0.458790 -0.027671 0.266715 0.600000 0.000000 0.300000
0.507915 0.000464 0.454004 0.600000 0.000000 0.300000
0.075678 0.019120 -0.055520 0.500000 0.000000 0.500000
-0.344899 -0.017841 -0.158896 0.300000 0.600000 0.000000
-0.315591 0.017001 0.028468 0.500000 0.000000 0.500000
0.374024 0.027518 -0.219844 0.000000 0.500000 0.500000
0.140362 0.000640 0.028569 0.300000 0.600000 0.000000
0.056500 -0.009191 -0.238366 0.000000 0.500000 0.500000
-0.258767 0.000640 0.118167 0.500000 0.000000 0.500000
0.537745 0.029297 -0.524037 0.000000 0.500000 0.500000
0.188446 0.030012 -0.372654 0.000000 0.500000 0.500000
-0.891611 0.000640 0.370020 0.500000 0.000000 0.500000
-0.141572 -0.017841 -0.080059 0.300000 0.600000 0.000000
0.153942 -0.008528 -0.149716 0.000000 0.500000 0.500000
-0.279765 -0.017841 -0.020242 0.300000 0.600000 0.000000
0.534448 -0.009191 -0.455919 0.000000 0.500000 0.500000
-0.474349 0.000640 -0.244096 0.300000 0.600000 0.000000
-0.020879 0.016866 -0.168408 0.000000 0.500000 0.500000
-0.227608 0.019120 0.187662 0.500000 0.000000 0.500000
0.358572 -0.027133 0.593777 0.600000 0.000000 0.300000
0.543519 -0.024161 0.494640 0.600000 0.000000 0.300000
0.228646 0.011532 0.167109 0.600000 0.000000 0.300000
-0.514558 0.019120 0.205002 0.500000 0.000000 0.500000
-0.674773 0.000640 0.252102 0.500000 0.000000 0.500000
0.071437 -0.017841 0.043423 0.300000 0.600000 0.000000
0.555201 -0.007790 -0.480871 0.000000 0.500000 0.500000
-0.192653 0.000640 -0.078450 0.300000 0.600000 0.000000
0.114672 -0.009191 -0.255533 0.000000 0.500000 0.500000
-0.327530 0.019120 0.129138 0.500000 0.000000 0.500000
-0.389647 -0.017841 -0.188689 0.300000 0.600000 0.000000
-0.431618 0.000640 0.164016 0.500000 0.000000 0.500000
0.466394 -0.019857 0.519127 0.600000 0.000000 0.300000
-0.381752 -0.017841 -0.096732 0.300000 0.600000 0.000000
0.189236 0.000640 -0.259884 0.500000 0.000000 0.500000
-0.280659 -0.017841 -0.183882 0.300000 0.600000 0.000000
0.214040 0.007006 -0.237531 0.500000 0.000000 0.500000
0.249644 -0.005145 0.476877 0.600000 0.000000 0.300000
-0.712070 0.019120 0.331218 0.500000 0.000000 0.500000
-0.039669 -0.017841 0.037654 0.300000 0.600000 0.000000
0.283801 -0.007549 -0.602371 0.000000 0.500000 0.500000
0.078228 -0.009191 -0.348970 0.000000 0.500000 0.500000
-0.322669 0.019120 0.189936 0.500000 0.000000 0.500000
0.197755 -0.006049 -0.541181 0.000000 0.500000 0.500000
0.101122 0.030012 -0.400611 0.000000 0.500000 0.500000
0.294278 0.030012 -0.248392 0.000000 0.500000 0.500000
0.129414 0.011532 0.409969 0.600000 0.000000 0.300000
0.329503 0.011532 0.207822 0.600000 0.000000 0.300000
0.375770 0.027727 -0.628740 0.000000 0.500000 0.500000
-0.161003 0.019120 0.050384 0.500000 0.000000 0.500000
0.060344 0.011532 0.220139 0.600000 0.000000 0.300000
0.467785 0.002018 -0.612031 0.000000 0.500000 0.500000
0.062508 -0.009191 -0.287479 0.000000 0.500000 0.500000
-0.214573 -0.017841 0.001480 0.300000 0.600000 0.000000
-0.409282 0.019120 0.215862 0.500000 0.000000 0.500000
-0.515512 0.018611 0.281867 0.500000 0.000000 0.500000
0.202054 -0.026300 0.510761 0.600000 0.000000 0.300000
-0.453426 0.001127 0.261694 0.500000 0.000000 0.500000
0.151320 -0.027671 0.369574 0.600000 0.000000 0.300000
0.136941 0.007187 -0.046019 0.500000 0.000000 0.500000
0.358621 0.006006 -0.580037 0.000000 0.500000 0.500000
-0.536870 -0.017841 -0.214761 0.300000 0.600000 0.000000
0.322056 0.026612 -0.301915 0.000000 0.500000 0.500000
0.260895 -0.009191 -0.302856 0.000000 0.500000 0.500000
0.324694 -0.009191 -0.239896 0.000000 0.500000 0.500000
-0.160031 0.019120 0.096598 0.500000 0.000000 0.500000
-0.280206 0.019120 0.027546 0.500000 0.000000 0.500000
-0.196509 0.000640 -0.188571 0.300000 0.600000 0.000000
-0.476616 0.000640 -0.204061 0.300000 0.600000 0.000000
-0.134789 0.000640 0.043185 0.500000 0.000000 0.500000
-0.138748 0.000640 0.143004 0.500000 0.000000 0.500000
-0.155396 0.000640 -0.171665 0.300000 0.600000 0.000000
-0.071597 0.019120 0.044475 0.500000 0.000000 0.500000
0.224610 -0.006759 -0.445714 0.000000 0.500000 0.500000
0.431132 -0.020071 0.279177 0.600000 0.000000 0.300000
0.061223 -0.017841 0.077800 0.300000 0.600000 0.000000
0.099092 0.030012 -0.292494 0.000000 0.500000 0.500000
-0.791969 -0.017841 -0.377969 0.300000 0.600000 0.000000
-0.495285 -0.017841 -0.299188 0.300000 0.600000 0.000000
0.150355 0.030012 -0.387260 0.000000 0.500000 0.500000
-0.007728 -0.002075 -0.213819 0.000000 0.500000 0.500000
0.148442 -0.017841 0.111868 0.300000 0.600000 0.000000
0.244189 0.029753 -0.527274 0.000000 0.500000 0.500000
-0.642105 0.000640 0.213547 0.500000 0.000000 0.500000
0.309947 0.022588 -0.185306 0.000000 0.500000 0.500000
-0.648781 0.000640 -0.335068 0.300000 0.600000 0.000000
-0.514969 0.000640 -0.239723 0.300000 0.600000 0.000000
0.004364 0.033574 -0.030237 0.500000 0.500000 0.000000
-0.328924 0.000640 0.055050 0.500000 0.000000 0.500000
-0.346919 0.000640 0.201553 0.500000 0.000000 0.500000
0.163746 -0.009191 -0.351136 0.000000 0.500000 0.500000
-0.281092 0.000640 -0.097622 0.300000 0.600000 0.000000
-0.409612 0.000640 -0.244595 0.300000 0.600000 0.000000
-0.664905 0.000640 -0.277572 0.300000 0.600000 0.000000
0.116909 -0.014241 0.166773 0.300000 0.600000 0.000000
0.124017 0.030012 -0.222158 0.000000 0.500000 0.500000
0.263321 0.029684 -0.330783 0.000000 0.500000 0.500000
0.218581 0.006503 -0.295365 0.500000 0.000000 0.500000
0.271301 -0.023827 0.144862 0.600000 0.000000 0.300000
0.292499 -0.027671 0.216169 0.600000 0.000000 0.300000
-0.612383 -0.013869 -0.214236 0.300000 0.600000 0.000000
-0.227281 -0.017841 -0.099309 0.300000 0.600000 0.000000
0.012346 0.030012 -0.229282 0.000000 0.500000 0.500000
0.187745 0.030012 -0.280801 0.000000 0.500000 0.500000
-0.306445 -0.017841 -0.070675 0.300000 0.600000 0.000000
0.416100 -0.009114 0.603211 0.600000 0.000000 0.300000
-0.006149 0.000640 -0.052364 0.300000 0.600000 0.000000
0.258596 -0.009191 -0.563890 0.000000 0.500000 0.500000
0.154932 -0.009191 -0.296088 0.000000 0.500000 0.500000
0.371714 0.003249 0.553365 0.600000 0.000000 0.300000
-0.125403 0.019120 -0.035417 0.500000 0.000000 0.500000
-0.053322 0.000640 0.098771 0.500000 0.000000 0.500000
0.178729 0.000640 0.138086 0.300000 0.600000 0.000000
-0.376246 0.000640 -0.225470 0.300000 0.600000 0.000000
0.165958 0.016460 -0.100081 0.500000 0.000000 0.500000
0.102472 -0.017841 0.119353 0.300000 0.600000 0.000000
0.560540 0.008674 0.384285 0.600000 0.000000 0.300000
-0.866049 0.019120 0.368464 0.500000 0.000000 0.500000
-0.223729 0.000640 -0.145785 0.300000 0.600000 0.000000
-0.013497 0.023047 -0.133401 0.000000 0.500000 0.500000
-0.387643 0.000640 0.157870 0.500000 0.000000 0.500000
-0.514998 0.000640 -0.205268 0.300000 0.600000 0.000000
-0.327268 0.000640 -0.221728 0.300000 0.600000 0.000000
0.012389 -0.027671 0.150720 0.600000 0.000000 0.300000
-0.579226 0.000640 0.283927 0.500000 0.000000 0.500000
-0.314435 0.000986 0.002416 0.500000 0.000000 0.500000
0.403835 0.005538 -0.634803 0.000000 0.500000 0.500000
-0.007194 -0.017841 -0.101629 0.300000 0.600000 0.000000
0.062222 0.030012 -0.206163 0.000000 0.500000 0.500000
0.491201 -0.021584 0.326966 0.600000 0.000000 0.300000
0.469624 -0.015834 0.581511 0.600000 0.000000 0.300000
0.097719 0.011532 0.197263 0.600000 0.000000 0.300000
0.198448 0.007252 -0.146282 0.000000 0.500000 0.500000
-0.291020 0.000640 -0.237380 0.300000 0.600000 0.000000
-0.282900 0.003098 0.206287 0.500000 0.000000 0.500000
0.117144 -0.009191 -0.378144 0.000000 0.500000 0.500000
-0.413528 -0.017841 -0.123753 0.300000 0.600000 0.000000
0.138460 0.000640 0.079527 0.300000 0.600000 0.000000
0.334111 -0.027671 0.232431 0.600000 0.000000 0.300000
0.307967 0.030012 -0.593677 0.000000 0.500000 0.500000
0.316661 -0.009191 -0.591436 0.000000 0.500000 0.500000
-0.405148 0.019120 0.174020 0.500000 0.000000 0.500000
0.048116 -0.013735 0.121598 0.300000 0.600000 0.000000
0.049158 -0.015118 -0.088610 0.300000 0.600000 0.000000
0.370972 -0.009191 -0.280712 0.000000 0.500000 0.500000
0.197588 -0.009753 0.158571 0.300000 0.600000 0.000000
0.541716 0.030012 -0.437313 0.000000 0.500000 0.500000
0.149120 0.030012 -0.322372 0.000000 0.500000 0.500000
-0.050694 -0.017841 -0.072969 0.300000 0.600000 0.000000
-0.552022 0.000640 0.178386 0.500000 0.000000 0.500000
-0.489208 0.019120 0.239221 0.500000 0.000000 0.500000
-0.152024 -0.017841 -0.039775 0.300000 0.600000 0.000000
-0.210958 0.019120 0.047640 0.500000 0.000000 0.500000
-0.702728 -0.017841 -0.306718 0.300000 0.600000 0.000000
-0.213271 0.019120 0.083326 0.500000 0.000000 0.500000
-0.428590 -0.017841 -0.277930 0.300000 0.600000 0.000000
0.122269 0.019120 -0.165509 0.500000 0.000000 0.500000
0.272026 0.011532 0.277235 0.600000 0.000000 0.300000
0.224001 0.011532 0.233053 0.600000 0.000000 0.300000
-0.069236 0.000640 -0.022942 0.300000 0.600000 0.000000
0.319735 -0.025711 0.270472 0.600000 0.000000 0.300000
0.159853 0.030012 -0.474010 0.000000 0.500000 0.500000
0.310487 0.011532 0.234820 0.600000 0.000000 0.300000
-0.075603 0.019120 0.112304 0.500000 0.000000 0.500000
-0.749880 0.019120 0.327736 0.500000 0.000000 0.500000
0.541570 0.011532 0.407841 0.600000 0.000000 0.300000
0.097149 0.000640 -0.128774 0.500000 0.000000 0.500000
0.102473 0.001697 -0.447117 0.000000 0.500000 0.500000
0.145856 0.007883 -0.217858 0.500000 0.000000 0.500000
0.198295 0.000640 0.189124 0.300000 0.600000 0.000000
0.076641 0.000640 0.121837 0.300000 0.600000 0.000000
0.075501 -0.017841 0.013860 0.300000 0.600000 0.000000
0.144760 0.011532 0.339955 0.600000 0.000000 0.300000
-0.081697 0.000640 -0.073451 0.300000 0.600000 0.000000
0.128404 0.019120 -0.088278 0.500000 0.000000 0.500000
-0.596579 -0.017841 -0.297071 0.300000 0.600000 0.000000
0.081615 -0.027671 0.356653 0.600000 0.000000 0.300000
-0.001307 0.014492 0.011602 0.500000 0.500000 0.000000
-0.823052 -0.017841 -0.335045 0.300000 0.600000 0.000000
0.002543 0.000640 0.051878 0.500000 0.000000 0.500000
-0.095691 0.000640 -0.044112 0.300000 0.600000 0.000000
0.282558 0.019010 -0.548850 0.000000 0.500000 0.500000
-0.289674 0.000640 0.082344 0.500000 0.000000 0.500000
0.082734 0.030012 -0.260642 0.000000 0.500000 0.500000
0.460030 0.008603 0.290284 0.600000 0.000000 0.300000
0.169862 -0.009191 -0.191665 0.000000 0.500000 0.500000
0.014496 0.000640 -0.023573 0.300000 0.600000 0.000000
0.381398 0.011532 0.206917 0.600000 0.000000 0.300000
0.029740 -0.005447 -0.311598 0.000000 0.500000 0.500000
-0.536743 0.000640 0.256344 0.500000 0.000000 0.500000
0.078048 0.011472 0.353782 0.600000 0.000000 0.300000
0.231888 0.030012 -0.243222 0.000000 0.500000 0.500000
-0.368314 0.019120 0.102310 0.500000 0.000000 0.500000
-0.117215 -0.017841 -0.122803 0.300000 0.600000 0.000000
0.174336 -0.017841 0.175693 0.300000 0.600000 0.000000
-0.072962 0.000640 -0.101940 0.300000 0.600000 0.000000
-0.211932 0.000640 0.138891 0.500000 0.000000 0.500000
0.198537 0.030012 -0.480471 0.000000 0.500000 0.500000
-0.244067 0.000640 -0.222109 0.300000 0.600000 0.000000
0.351081 -0.024882 0.178758 0.600000 0.000000 0.300000
0.540730 -0.027671 0.352460 0.600000 0.000000 0.300000
0.011666 0.011458 -0.285847 0.000000 0.500000 0.500000
0.225048 0.010924 -0.573992 0.000000 0.500000 0.500000
0.218481 -0.009191 -0.173719 0.000000 0.500000 0.500000
-0.567373 -0.017841 -0.256859 0.300000 0.600000 0.000000
0.048172 0.000640 -0.054631 0.300000 0.600000 0.000000
-0.225970 0.000640 -0.183521 0.300000 0.600000 0.000000
-0.350377 0.000640 0.157959 0.500000 0.000000 0.500000
0.138119 -0.009191 -0.408946 0.000000 0.500000 0.500000
0.075077 0.019120 0.017086 0.500000 0.000000 0.500000
0.042487 -0.009059 -0.140171 0.000000 0.500000 0.500000
-0.364278 0.000640 0.041043 0.500000 0.000000 0.500000
0.142852 0.019120 -0.185664 0.500000 0.000000 0.500000
0.233770 -0.027671 0.519796 0.600000 0.000000 0.300000
-0.076129 -0.017841 -0.146508 0.300000 0.600000 0.000000
0.200432 0.011532 0.334444 0.600000 0.000000 0.300000
0.027307 -0.009191 -0.252467 0.000000 0.500000 0.500000
0.454699 -0.025420 0.237776 0.600000 0.000000 0.300000
0.076082 0.019120 -0.137389 0.500000 0.000000 0.500000
-0.545192 0.000640 -0.303508 0.300000 0.600000 0.000000
-0.178778 0.019120 0.026793 0.500000 0.000000 0.500000
-0.786933 0.000640 0.347730 0.500000 0.000000 0.500000
0.484518 0.006733 0.254103 0.600000 0.000000 0.300000
0.476216 0.030012 -0.583608 0.000000 0.500000 0.500000
0.514914 0.001950 0.544848 0.600000 0.000000 0.300000
0.252576 -0.024724 0.324182 0.600000 0.000000 0.300000
-0.589644 0.000640 0.179960 0.500000 0.000000 0.500000
0.216704 0.030012 -0.181756 0.000000 0.500000 0.500000
0.567701 -0.005219 0.442645 0.600000 0.000000 0.300000
0.119925 0.000640 -0.108271 0.500000 0.000000 0.500000
-0.382783 -0.017841 -0.247128 0.300000 0.600000 0.000000
0.506136 -0.009191 -0.536485 0.000000 0.500000 0.500000
0.519380 0.021913 -0.311673 0.000000 0.500000 0.500000
-0.104417 0.000640 0.039060 0.300000 0.600000 0.000000
0.507805 0.030012 -0.524641 0.000000 0.500000 0.500000
0.072366 0.011532 0.300289 0.600000 0.000000 0.300000
-0.155221 -0.017841 -0.127210 0.300000 0.600000 0.000000
0.169790 -0.027671 0.443571 0.600000 0.000000 0.300000
-0.698007 -0.000328 -0.281628 0.300000 0.600000 0.000000
0.241483 -0.020594 0.131879 0.600000 0.000000 0.300000
-0.447815 0.000640 -0.138040 0.300000 0.600000 0.000000
0.004036 -0.005652 0.235587 0.600000 0.000000 0.300000
-0.231836 0.000640 -0.034187 0.300000 0.600000 0.000000
0.089321 -0.012526 -0.047908 0.300000 0.600000 0.000000
-0.127144 0.019120 0.087339 0.500000 0.000000 0.500000
-0.086464 -0.017841 -0.119380 0.300000 0.600000 0.000000
-0.162470 0.000640 -0.084478 0.300000 0.600000 0.000000
-0.079706 0.000640 0.003454 0.500000 0.000000 0.500000
0.396909 0.024687 -0.583374 0.000000 0.500000 0.500000
-0.026757 0.019120 -0.080806 0.500000 0.000000 0.500000
-0.834540 -0.017841 -0.414728 0.300000 0.600000 0.000000
-0.464894 -0.017841 -0.225066 0.300000 0.600000 0.000000
-0.509412 0.000640 0.226788 0.500000 0.000000 0.500000
-0.180176 -0.017841 -0.175005 0.300000 0.600000 0.000000
0.237293 -0.027671 0.187680 0.600000 0.000000 0.300000
0.049674 -0.024734 0.321567 0.600000 0.000000 0.300000
-0.425350 0.000640 0.229611 0.500000 0.000000 0.500000
0.054242 -0.005014 -0.362907 0.000000 0.500000 0.500000
0.176417 0.018813 -0.530687 0.000000 0.500000 0.500000
0.070173 0.012064 -0.402809 0.000000 0.500000 0.500000
-0.564065 -0.017841 -0.181572 0.300000 0.600000 0.000000
0.152059 0.000640 0.055051 0.300000 0.600000 0.000000
0.559766 -0.006875 -0.413007 0.000000 0.500000 0.500000
0.153325 -0.002880 -0.503347 0.000000 0.500000 0.500000
0.201202 0.030012 -0.347765 0.000000 0.500000 0.500000
0.404439 -0.006920 -0.294274 0.000000 0.500000 0.500000
-0.341588 0.019120 0.093205 0.500000 0.000000 0.500000
0.513425 -0.016725 0.273737 0.600000 0.000000 0.300000
-0.609802 0.000640 0.308815 0.500000 0.000000 0.500000
-0.221251 0.019120 0.009408 0.500000 0.000000 0.500000
0.476077 0.010817 0.563673 0.600000 0.000000 0.300000
0.035572 0.011532 0.157841 0.600000 0.000000 0.300000
0.516641 0.025575 -0.469229 0.000000 0.500000 0.500000
-0.054077 0.000640 0.057022 0.500000 0.000000 0.500000
0.400096 0.029804 -0.242341 0.000000 0.500000 0.500000
0.277266 0.030012 -0.200745 0.000000 0.500000 0.500000
0.030768 0.011532 0.256764 0.600000 0.000000 0.300000
-0.470019 -0.017841 -0.175840 0.300000 0.600000 0.000000
-0.595716 0.000640 0.207183 0.500000 0.000000 0.500000
0.411870 -0.027671 0.224039 0.600000 0.000000 0.300000
-0.000929 0.000640 -0.079608 0.500000 0.000000 0.500000
0.235925 0.001904 0.373546 0.600000 0.000000 0.300000
0.119657 -0.017841 0.026682 0.300000 0.600000 0.000000
-0.109800 -0.017841 -0.166278 0.300000 0.600000 0.000000
-0.545153 0.000640 -0.271973 0.300000 0.600000 0.000000
0.196944 -0.027671 0.219456 0.600000 0.000000 0.300000
0.004945 0.002615 0.093990 0.500000 0.000000 0.500000
0.549260 0.004584 0.491112 0.600000 0.000000 0.300000
0.122116 0.011532 0.151246 0.600000 0.000000 0.300000
-0.029742 0.000640 -0.017323 0.500000 0.000000 0.500000
0.177943 0.019120 -0.227734 0.500000 0.000000 0.500000
-0.300037 0.000640 0.136304 0.500000 0.000000 0.500000
0.337506 0.011418 0.587675 0.600000 0.000000 0.300000
0.232814 -0.009191 -0.352099 0.000000 0.500000 0.500000
-0.789551 0.019120 0.306549 0.500000 0.000000 0.500000
0.544053 0.029827 -0.379579 0.000000 0.500000 0.500000
-0.853033 0.000640 0.319804 0.500000 0.000000 0.500000
-0.012151 0.019120 0.036403 0.500000 0.000000 0.500000
-0.399233 0.000640 0.130273 0.500000 0.000000 0.500000
-0.418828 0.018044 0.089710 0.500000 0.000000 0.500000
0.480362 -0.009188 -0.584850 0.000000 0.500000 0.500000
-0.183269 0.000640 0.046544 0.500000 0.000000 0.500000
-0.115800 0.000640 -0.086247 0.300000 0.600000 0.000000
0.432936 0.017895 -0.244243 0.000000 0.500000 0.500000
0.243701 0.015622 -0.385776 0.000000 0.500000 0.500000
0.471217 0.018880 -0.542332 0.000000 0.500000 0.500000
0.167282 -0.027671 0.416345 0.600000 0.000000 0.300000
-0.359633 -0.000956 -0.084362 0.300000 0.600000 0.000000
-0.859006 0.000640 -0.390944 0.300000 0.600000 0.000000
0.519019 -0.009140 -0.381116 0.000000 0.500000 0.500000
0.215679 -0.027671 0.466670 0.600000 0.000000 0.300000
-0.184960 0.000640 0.001343 0.300000 0.600000 0.000000
0.107610 0.000640 0.054829 0.300000 0.600000 0.000000
-0.909428 0.019120 0.385361 0.500000 0.000000 0.500000
0.423785 0.011532 0.244540 0.600000 0.000000 0.300000
0.120960 -0.009191 -0.317578 0.000000 0.500000 0.500000
-0.615891 0.000640 -0.236931 0.300000 0.600000 0.000000
0.509670 -0.001627 -0.302216 0.000000 0.500000 0.500000
0.111494 -0.009191 -0.197170 0.000000 0.500000 0.500000
-0.107570 0.019120 0.124254 0.500000 0.000000 0.500000
0.159371 -0.000320 0.484287 0.600000 0.000000 0.300000
-0.116950 0.019120 0.006986 0.500000 0.000000 0.500000
0.360738 -0.027671 0.226458 0.600000 0.000000 0.300000
-0.495082 -0.017841 -0.250526 0.300000 0.600000 0.000000
0.245719 -0.012461 0.559473 0.600000 0.000000 0.300000
-0.448837 0.019120 0.149028 0.500000 0.000000 0.500000
-0.023198 0.001112 0.124603 0.600000 0.000000 0.300000
0.076015 0.000640 -0.087164 0.500000 0.000000 0.500000
0.130154 0.005308 0.106967 0.600000 0.000000 0.300000
-0.238922 -0.017841 -0.201661 0.300000 0.600000 0.000000
-0.469406 0.000640 0.239541 0.500000 0.000000 0.500000
0.058211 -0.017841 -0.010133 0.300000 0.600000 0.000000
-0.629101 0.000640 0.237289 0.500000 0.000000 0.500000
0.236181 0.011532 0.331915 0.600000 0.000000 0.300000
0.088361 0.030012 -0.183753 0.000000 0.500000 0.500000
0.440001 -0.027671 0.568684 0.600000 0.000000 0.300000
0.101133 0.002895 0.101280 0.600000 0.000000 0.300000
-0.362102 0.000640 -0.146476 0.300000 0.600000 0.000000
-0.402717 -0.017841 -0.162590 0.300000 0.600000 0.000000
0.396196 -0.007050 0.548595 0.600000 0.000000 0.300000
0.109440 0.011532 0.252448 0.600000 0.000000 0.300000
-0.346536 -0.017841 -0.131975 0.300000 0.600000 0.000000
-0.738713 -0.017841 -0.346824 0.300000 0.600000 0.000000
-0.043070 -0.017841 -0.130675 0.300000 0.600000 0.000000
0.170529 -0.009191 -0.408470 0.000000 0.500000 0.500000
0.554442 0.011408 -0.361554 0.000000 0.500000 0.500000
-0.429691 0.000640 0.135006 0.500000 0.000000 0.500000
0.118917 -0.027262 0.417913 0.600000 0.000000 0.300000
-0.183099 0.000640 0.085639 0.500000 0.000000 0.500000
-0.475362 -0.001051 -0.151452 0.300000 0.600000 0.000000
-0.343128 -0.017841 -0.245900 0.300000 0.600000 0.000000
-0.561440 0.019120 0.291872 0.500000 0.000000 0.500000
0.057344 0.011644 -0.156961 0.500000 0.000000 0.500000
0.265716 0.008843 -0.165361 0.000000 0.500000 0.500000
-0.561495 0.019120 0.232341 0.500000 0.000000 0.500000
0.040315 0.000640 0.075120 0.300000 0.600000 0.000000
-0.307614 -0.017841 -0.127775 0.300000 0.600000 0.000000
-0.503266 -0.017841 -0.188216 0.300000 0.600000 0.000000
-0.216079 -0.017841 -0.127984 0.300000 0.600000 0.000000
-0.661212 0.000640 0.316857 0.500000 0.000000 0.500000
0.038030 0.030012 -0.153801 0.000000 0.500000 0.500000
0.234875 -0.027671 0.257358 0.600000 0.000000 0.300000
-0.040291 0.011019 -0.102393 0.500000 0.000000 0.500000
-0.335986 0.019120 0.223210 0.500000 0.000000 0.500000
0.120948 0.011532 0.210368 0.600000 0.000000 0.300000
0.425976 0.011370 0.583649 0.600000 0.000000 0.300000
0.376394 0.011532 0.246076 0.600000 0.000000 0.300000
0.063329 -0.009191 -0.180340 0.000000 0.500000 0.500000
0.057303 0.010206 0.328861 0.600000 0.000000 0.300000
0.484970 0.012643 -0.355552 0.000000 0.500000 0.500000
-0.303305 0.000640 -0.179461 0.300000 0.600000 0.000000
0.291967 0.030012 -0.282560 0.000000 0.500000 0.500000
0.038400 -0.009191 -0.201515 0.000000 0.500000 0.500000
0.488814 0.005507 -0.280412 0.000000 0.500000 0.500000
-0.679619 0.000640 0.289395 0.500000 0.000000 0.500000
-0.324714 0.000640 -0.162604 0.300000 0.600000 0.000000
0.197221 0.011042 -0.186759 0.500000 0.000000 0.500000
0.461006 -0.004357 -0.323897 0.000000 0.500000 0.500000
0.168437 0.011532 0.227253 0.600000 0.000000 0.300000
-0.098971 -0.017841 -0.065505 0.300000 0.600000 0.000000
-0.033539 0.019120 0.089121 0.500000 0.000000 0.500000
-0.019872 -0.017841 0.055359 0.300000 0.600000 0.000000
0.204858 0.000640 0.248487 0.300000 0.600000 0.000000
-0.241176 0.019120 0.126172 0.500000 0.000000 0.500000
0.249280 0.011532 0.244867 0.600000 0.000000 0.300000
0.123376 -0.002785 0.445656 0.600000 0.000000 0.300000
0.296131 -0.009191 -0.203290 0.000000 0.500000 0.500000
0.243643 -0.008607 -0.521908 0.000000 0.500000 0.500000
-0.383636 0.000640 -0.164981 0.300000 0.600000 0.000000
-0.446102 0.000640 -0.178759 0.300000 0.600000 0.000000
0.383408 -0.006737 0.185382 0.600000 0.000000 0.300000
0.062038 -0.027671 0.175470 0.600000 0.000000 0.300000
0.118869 0.003354 -0.018941 0.500000 0.000000 0.500000
-0.237062 0.019120 0.094482 0.500000 0.000000 0.500000
-0.487487 0.019120 0.150740 0.500000 0.000000 0.500000
-0.664064 0.019120 0.267392 0.500000 0.000000 0.500000
0.292207 -0.027671 0.270439 0.600000 0.000000 0.300000
-0.204763 -0.017841 -0.058840 0.300000 0.600000 0.000000
-0.277269 0.019120 0.062969 0.500000 0.000000 0.500000
0.266670 0.010650 0.519516 0.600000 0.000000 0.300000
-0.194373 -0.017841 -0.207069 0.300000 0.600000 0.000000
0.191062 0.030012 -0.428212 0.000000 0.500000 0.500000
0.074225 -0.003440 0.378993 0.600000 0.000000 0.300000
0.073869 0.030012 -0.310109 0.000000 0.500000 0.500000
-0.004545 0.009598 0.172053 0.600000 0.000000 0.300000
-0.087095 -0.017841 0.027493 0.300000 0.600000 0.000000
-0.366059 0.000640 0.083476 0.500000 0.000000 0.500000
0.095994 -0.009191 -0.282603 0.000000 0.500000 0.500000
-0.826764 0.019120 0.374611 0.500000 0.000000 0.500000
-0.751581 0.000640 -0.320086 0.300000 0.600000 0.000000
-0.064986 0.000640 0.026544 0.500000 0.000000 0.500000
-0.426488 0.014832 0.252941 0.500000 0.000000 0.500000
0.123084 0.027826 -0.140712 0.000000 0.500000 0.500000
-0.475780 -0.017841 -0.273159 0.300000 0.600000 0.000000
-0.401023 0.000008 -0.109581 0.300000 0.600000 0.000000
0.387180 -0.009118 -0.236497 0.000000 0.500000 0.500000
0.220858 -0.004819 0.122117 0.600000 0.000000 0.300000
0.121530 0.030012 -0.343649 0.000000 0.500000 0.500000
-0.902491 -0.004625 -0.395103 0.300000 0.600000 0.000000
-0.566932 -0.017841 -0.301123 0.300000 0.600000 0.000000
0.081208 -0.009191 -0.230561 0.000000 0.500000 0.500000
0.194197 0.011532 0.482693 0.600000 0.000000 0.300000
-0.335025 -0.013993 -0.050328 0.300000 0.600000 0.000000
0.025239 0.000640 0.019096 0.300000 0.600000 0.000000
-0.146617 -0.017841 -0.187457 0.300000 0.600000 0.000000
0.207314 -0.027671 0.272014 0.600000 0.000000 0.300000
-0.264362 0.000640 0.018880 0.500000 0.000000 0.500000
0.510815 0.016460 -0.410312 0.000000 0.500000 0.500000
-0.096706 0.019120 0.086450 0.500000 0.000000 0.500000
0.102837 -0.027671 0.228927 0.600000 0.000000 0.300000
0.101567 -0.017841 0.006061 0.300000 0.600000 0.000000
0.284650 -0.027671 0.563758 0.600000 0.000000 0.300000
0.131617 0.030012 -0.283741 0.000000 0.500000 0.500000
-0.134494 0.000640 -0.059353 0.300000 0.600000 0.000000
0.091781 0.019120 -0.078459 0.500000 0.000000 0.500000
-0.878840 -0.017841 -0.415925 0.300000 0.600000 0.000000
-0.587786 -0.017841 -0.272877 0.300000 0.600000 0.000000
0.151065 -0.027671 0.203208 0.600000 0.000000 0.300000
0.316044 -0.000830 -0.309302 0.000000 0.500000 0.500000
0.237520 0.029784 -0.363271 0.000000 0.500000 0.500000
0.502054 -0.027671 0.501887 0.600000 0.000000 0.300000
0.256215 0.029107 -0.582070 0.000000 0.500000 0.500000
0.451090 0.025212 -0.260817 0.000000 0.500000 0.500000
-0.426040 -0.017841 -0.211464 0.300000 0.600000 0.000000
-0.002038 0.003155 0.207856 0.600000 0.000000 0.300000
-0.053558 0.000640 -0.048201 0.300000 0.600000 0.000000
-0.477497 0.000640 0.187515 0.500000 0.000000 0.500000
0.112379 -0.027671 0.189415 0.600000 0.000000 0.300000
-0.284787 -0.017841 -0.142848 0.300000 0.600000 0.000000
-0.679393 -0.017841 -0.291488 0.300000 0.600000 0.000000
-0.322779 0.000640 -0.095859 0.300000 0.600000 0.000000
0.512658 -0.026716 0.349159 0.600000 0.000000 0.300000
-0.822527 0.000640 0.330506 0.500000 0.000000 0.500000
0.516072 -0.022846 0.438828 0.600000 0.000000 0.300000
-0.249549 -0.017841 -0.136393 0.300000 0.600000 0.000000
-0.181252 -0.017841 -0.030212 0.300000 0.600000 0.000000
-0.438178 0.019120 0.211025 0.500000 0.000000 0.500000
-0.104923 0.000640 -0.109280 0.300000 0.600000 0.000000
-0.248774 0.019120 0.070020 0.500000 0.000000 0.500000
0.400263 0.009513 0.596214 0.600000 0.000000 0.300000
0.223762 0.030012 -0.303556 0.000000 0.500000 0.500000
0.520458 0.011437 0.356392 0.600000 0.000000 0.300000
0.232757 -0.015323 0.395698 0.600000 0.000000 0.300000
0.285301 0.011532 0.175544 0.600000 0.000000 0.300000
0.003821 -0.016819 -0.124447 0.300000 0.600000 0.000000
0.512504 -0.009191 -0.353122 0.000000 0.500000 0.500000
-0.433246 0.000640 0.104201 0.500000 0.000000 0.500000
0.000379 -0.003591 -0.237769 0.000000 0.500000 0.500000
-0.293767 0.000640 0.162353 0.500000 0.000000 0.500000
0.234671 0.022708 -0.477606 0.000000 0.500000 0.500000
0.417520 -0.009191 -0.610376 0.000000 0.500000 0.500000
0.545117 -0.003393 0.314109 0.600000 0.000000 0.300000
0.079597 0.007786 -0.171058 0.500000 0.000000 0.500000
0.338378 0.011532 0.244702 0.600000 0.000000 0.300000
-0.733423 0.000640 0.332878 0.500000 0.000000 0.500000
-0.307424 -0.017841 -0.221141 0.300000 0.600000 0.000000
0.113899 0.030012 -0.431559 0.000000 0.500000 0.500000
0.400334 -0.027157 0.259099 0.600000 0.000000 0.300000
0.041780 0.000640 -0.015221 0.300000 0.600000 0.000000
-0.163044 -0.017841 -0.155699 0.300000 0.600000 0.000000
-0.514661 0.000640 0.187808 0.500000 0.000000 0.500000
-0.625624 0.019120 0.260464 0.500000 0.000000 0.500000
-0.737864 -0.007646 -0.295777 0.300000 0.600000 0.000000
0.247225 0.011532 0.285592 0.600000 0.000000 0.300000
0.144842 -0.027671 0.230190 0.600000 0.000000 0.300000
0.036463 -0.027671 0.224094 0.600000 0.000000 0.300000
0.107255 -0.017841 -0.025990 0.300000 0.600000 0.000000
0.228419 0.007794 0.436806 0.600000 0.000000 0.300000
0.198076 -0.009191 -0.496359 0.000000 0.500000 0.500000
0.167910 -0.009191 -0.448293 0.000000 0.500000 0.500000
-0.235743 0.000640 -0.000694 0.500000 0.000000 0.500000
