ply
format ascii 1.0
element vertex 1264
property float x
property float y
property float z
property uchar red
property uchar green
property uchar blue
end_header
0.545320 0.011607 -0.343234 0 127 127
-0.549157 -0.017841 -0.272011 76 153 0
-0.374283 0.000640 -0.178650 76 153 0
-0.554397 0.019120 0.276973 127 0 127
-0.071211 -0.017841 0.037280 76 153 0
0.459562 -0.009191 -0.295648 0 127 127
-0.555829 0.008864 0.294966 127 0 127
0.124791 -0.009191 -0.240916 0 127 127
0.084158 -0.027671 0.147642 153 0 76
-0.108687 0.000640 -0.145891 76 153 0
-0.768573 0.019120 0.321489 127 0 127
0.484169 0.011006 0.304201 153 0 76
0.023333 -0.017841 -0.093283 76 153 0
0.045059 -0.009115 -0.321184 0 127 127
-0.232760 -0.017841 -0.101144 76 153 0
0.159671 0.000640 0.095026 76 153 0
0.049629 -0.017841 -0.043954 76 153 0
-0.164633 0.000640 -0.157991 76 153 0
0.568213 -0.012913 0.383139 153 0 76
0.008394 0.000640 0.003131 127 0 127
0.075879 -0.009191 -0.248487 0 127 127
0.157386 0.014704 -0.082810 127 0 127
0.077425 -0.026866 0.361346 153 0 76
0.201857 -0.027671 0.459447 153 0 76
-0.769197 -0.017841 -0.337394 76 153 0
-0.364067 0.000640 0.217382 127 0 127
-0.916800 0.000805 0.357635 127 0 127
0.416786 0.010400 0.264979 153 0 76
-0.316168 0.000640 0.091774 127 0 127
-0.129341 0.019120 0.132845 127 0 127
-0.110889 0.000640 -0.178181 76 153 0
-0.372046 0.019120 0.132435 127 0 127
0.027405 0.011098 0.107704 153 0 76
0.392114 0.007482 0.197588 153 0 76
0.293904 -0.027671 0.270061 153 0 76
0.207743 -0.027671 0.505675 153 0 76
0.088021 -0.009191 -0.215481 0 127 127
0.566435 -0.000168 0.443999 153 0 76
-0.014687 0.004099 0.155085 153 0 76
0.247863 0.011532 0.150581 153 0 76
0.041767 0.019120 0.048609 127 0 127
0.429010 0.016326 -0.241296 0 127 127
0.174534 0.030012 -0.414842 0 127 127
0.545316 0.027936 -0.364160 0 127 127
0.187829 0.011532 0.403898 153 0 76
-0.236524 -0.017841 -0.024750 76 153 0
0.512978 -0.017575 0.434373 153 0 76
-0.645037 0.011486 0.323952 127 0 127
0.048955 -0.027671 0.159911 153 0 76
-0.901183 0.000640 0.385762 127 0 127
-0.033985 -0.017841 0.062807 76 153 0
0.521999 -0.002452 0.539399 153 0 76
0.529562 -0.027671 0.354923 153 0 76
-0.765003 0.019120 0.297985 127 0 127
-0.112713 0.019120 -0.034750 127 0 127
0.051988 0.000640 -0.093686 127 0 127
-0.308736 0.013047 0.018883 127 0 127
0.072599 -0.009191 -0.222357 0 127 127
0.427629 0.030012 -0.607847 0 127 127
-0.443315 -0.017841 -0.201778 76 153 0
0.242608 -0.009191 -0.273743 0 127 127
-0.199784 0.000640 -0.154944 76 153 0
0.412813 0.030012 -0.252493 0 127 127
-0.820542 0.000264 -0.410668 76 153 0
0.110565 -0.027671 0.327226 153 0 76
0.328048 0.026375 -0.196824 0 127 127
-0.794518 0.014606 0.303675 127 0 127
0.157550 0.011532 0.406635 153 0 76
0.410202 0.027229 -0.296605 0 127 127
-0.293750 -0.017841 -0.077995 76 153 0
-0.285443 -0.017841 -0.203632 76 153 0
0.203258 0.000640 0.228068 76 153 0
0.239749 -0.020966 0.356020 153 0 76
-0.253673 0.000640 -0.173160 76 153 0
-0.547285 0.019120 0.226330 127 0 127
-0.006785 0.000640 0.057166 76 153 0
0.207485 0.011532 0.236933 153 0 76
-0.102217 0.000640 0.019456 76 153 0
0.055441 0.000640 -0.066677 127 0 127
-0.356130 0.000640 0.146317 127 0 127
-0.267522 -0.017841 -0.068347 76 153 0
-0.298890 -0.013204 -0.030372 76 153 0
-0.818991 0.000640 0.342667 127 0 127
-0.118451 0.000640 -0.076409 76 153 0
0.246075 -0.003443 0.129774 153 0 76
0.162876 -0.027671 0.219536 153 0 76
0.364609 0.006778 -0.637167 0 127 127
-0.661456 -0.005690 -0.253813 76 153 0
0.400245 0.029128 -0.623264 0 127 127
-0.021775 0.000640 -0.079880 127 0 127
-0.074114 0.000640 0.049241 127 0 127
0.111991 0.000640 0.008729 76 153 0
-0.631710 0.000640 0.237917 127 0 127
-0.419336 -0.017841 -0.157815 76 153 0
0.458775 -0.027422 0.540513 153 0 76
0.473764 -0.019263 0.577217 153 0 76
0.067096 0.000640 0.034350 76 153 0
0.099874 -0.017841 0.132488 76 153 0
-0.014177 -0.012685 0.085844 76 153 0
-0.549253 0.000640 -0.265196 76 153 0
0.204221 0.011000 0.131681 153 0 76
0.293727 0.011532 0.567062 153 0 76
0.081607 -0.005187 -0.408410 0 127 127
0.104243 -0.027671 0.168638 153 0 76
-0.710587 0.000640 0.255219 127 0 127
0.172519 -0.027671 0.380031 153 0 76
0.051917 0.011532 0.299214 153 0 76
0.231668 0.007096 0.447156 153 0 76
-0.547636 0.000640 0.206699 127 0 127
-0.236475 0.000640 -0.056944 76 153 0
0.139607 0.000640 -0.203078 127 0 127
0.113777 -0.009191 -0.329538 0 127 127
0.170367 0.011532 0.279364 153 0 76
0.446190 -0.000637 -0.562911 0 127 127
0.214285 0.005074 -0.238269 127 0 127
-0.242834 0.000640 -0.205139 76 153 0
0.458824 0.024649 -0.557598 0 127 127
0.074076 0.030012 -0.268559 0 127 127
0.049660 0.030012 -0.328248 0 127 127
-0.750046 -0.017244 -0.387766 76 153 0
-0.189607 0.000640 0.143615 127 0 127
0.117788 0.030012 -0.385460 0 127 127
-0.021690 -0.009790 -0.141142 0 127 127
-0.763663 0.000640 0.315667 127 0 127
-0.478197 0.010672 0.114799 127 0 127
-0.146083 -0.017841 -0.056280 76 153 0
0.447975 0.004646 0.287492 153 0 76
0.242642 -0.013047 0.462452 153 0 76
0.055842 0.000640 -0.011248 127 0 127
0.180410 -0.024259 0.496485 153 0 76
-0.410800 0.000640 0.174489 127 0 127
0.329426 0.011532 0.235721 153 0 76
-0.387093 0.000640 0.061959 127 0 127
0.226894 0.030012 -0.260646 0 127 127
-0.423224 -0.017841 -0.187556 76 153 0
-0.062810 0.000640 0.025239 127 0 127
-0.412784 -0.008029 -0.105785 76 153 0
0.209468 -0.009191 -0.511490 0 127 127
0.117066 0.030012 -0.253707 0 127 127
0.244738 -0.027671 0.247164 153 0 76
-0.610058 0.000640 0.222856 127 0 127
0.516826 0.009243 0.288543 153 0 76
0.377101 0.011532 0.220371 153 0 76
-0.769545 0.011728 0.285628 127 0 127
0.177251 -0.009191 -0.209512 0 127 127
-0.364483 0.000640 -0.094885 76 153 0
-0.750951 0.000640 0.307111 127 0 127
-0.152309 0.019120 -0.005658 127 0 127
-0.745176 0.005140 0.356489 127 0 127
-0.088127 -0.017841 0.017400 76 153 0
0.213086 -0.009191 -0.296826 0 127 127
-0.002914 0.009390 0.180856 153 0 76
-0.565549 -0.017841 -0.197119 76 153 0
0.079007 0.021772 -0.411518 0 127 127
-0.847227 -0.011333 -0.419338 76 153 0
0.222097 0.021355 -0.568705 0 127 127
0.280008 -0.027671 0.224644 153 0 76
0.218123 0.030012 -0.176577 0 127 127
0.073465 0.011532 0.286625 153 0 76
0.144406 0.030012 -0.452790 0 127 127
0.160311 0.030012 -0.171407 0 127 127
0.375424 0.015818 -0.580825 0 127 127
0.228704 0.011532 0.194003 153 0 76
0.136496 -0.027671 0.353607 153 0 76
0.321270 0.011532 0.184228 153 0 76
0.362007 -0.027671 0.573623 153 0 76
-0.858263 0.000640 0.389591 127 0 127
0.051939 0.030012 -0.258119 0 127 127
0.430749 -0.027671 0.258139 153 0 76
0.433212 -0.027671 0.557409 153 0 76
0.534592 -0.009191 -0.517771 0 127 127
0.264196 0.003313 -0.351075 0 127 127
0.350338 -0.025637 0.179887 153 0 76
-0.128413 0.019120 0.053878 127 0 127
-0.153519 0.000640 -0.141503 76 153 0
-0.525520 -0.017841 -0.228066 76 153 0
-0.720129 0.019120 0.314360 127 0 127
-0.553134 -0.003770 -0.193270 76 153 0
-0.280509 0.008013 -0.005388 127 0 127
0.295712 0.011532 0.188554 153 0 76
0.244135 0.011532 0.536396 153 0 76
-0.679567 0.019120 0.296939 127 0 127
-0.194964 0.019120 0.139483 127 0 127
-0.014100 -0.017841 -0.062633 76 153 0
-0.424863 0.000640 0.149020 127 0 127
0.047205 0.019120 -0.137971 127 0 127
-0.519717 0.000640 -0.192120 76 153 0
0.102351 0.003241 -0.186439 127 0 127
-0.077006 0.000640 -0.124999 76 153 0
0.211712 -0.002313 -0.558566 0 127 127
0.345525 0.030012 -0.225318 0 127 127
-0.198304 0.000640 -0.078681 76 153 0
0.489012 0.011806 -0.361276 0 127 127
0.165703 -0.009191 -0.452912 0 127 127
-0.512524 0.008299 0.131474 127 0 127
0.171121 0.030012 -0.392875 0 127 127
0.015114 0.019120 -0.119289 127 0 127
0.027344 0.022423 -0.315288 0 127 127
0.517029 -0.027671 0.501427 153 0 76
0.546294 -0.012853 0.316449 153 0 76
0.244788 0.030012 -0.545707 0 127 127
-0.255779 0.000640 0.180717 127 0 127
0.484269 -0.009191 -0.308832 0 127 127
-0.416045 0.019120 0.101135 127 0 127
0.031051 0.000640 0.075588 76 153 0
0.266098 -0.017483 0.503657 153 0 76
-0.906657 -0.001791 -0.418835 76 153 0
0.363089 -0.004721 -0.211778 0 127 127
0.116094 0.030012 -0.312916 0 127 127
0.267623 -0.019277 0.314101 153 0 76
-0.849682 0.000640 -0.378154 76 153 0
-0.584899 0.019120 0.292954 127 0 127
0.204162 0.030012 -0.520038 0 127 127
-0.176903 0.000640 -0.013864 76 153 0
-0.299901 0.000640 -0.191242 76 153 0
-0.010950 0.019120 -0.080581 127 0 127
0.165285 -0.027671 0.285831 153 0 76
-0.267803 0.019120 0.008966 127 0 127
0.104833 0.030012 -0.392365 0 127 127
0.229791 0.030012 -0.512941 0 127 127
-0.266789 0.000640 -0.144587 76 153 0
-0.500586 0.002397 0.277017 127 0 127
0.055089 0.000640 0.124355 76 153 0
0.030201 0.030012 -0.210328 0 127 127
0.353207 0.000749 -0.580766 0 127 127
0.563457 -0.016812 0.364128 153 0 76
0.421809 0.005080 -0.308366 0 127 127
-0.179160 -0.017841 0.011669 76 153 0
0.156589 -0.013818 0.198552 76 153 0
-0.002627 -0.017841 0.054614 76 153 0
-0.575750 -0.017841 -0.234304 76 153 0
-0.103776 0.019120 0.121119 127 0 127
0.117398 0.019120 -0.150687 127 0 127
-0.674980 0.000640 -0.284659 76 153 0
-0.696455 0.019120 0.277797 127 0 127
-0.306708 -0.017841 -0.243472 76 153 0
-0.005714 -0.008941 0.204725 153 0 76
-0.491258 0.000640 0.187172 127 0 127
0.231396 -0.000072 -0.451625 0 127 127
0.026005 0.012755 -0.018963 127 127 0
-0.392093 0.000640 0.221782 127 0 127
0.263832 0.002020 -0.600376 0 127 127
-0.022678 -0.017841 -0.103685 76 153 0
-0.097886 -0.017841 -0.074652 76 153 0
0.161319 0.019120 -0.206145 127 0 127
0.343954 0.030012 -0.266574 0 127 127
-0.122273 0.013934 -0.065424 127 0 127
-0.402777 -0.017841 -0.227157 76 153 0
0.328140 -0.010267 0.277649 153 0 76
0.403111 -0.009191 -0.596809 0 127 127
0.078832 -0.027671 0.317521 153 0 76
-0.013324 -0.022646 0.152293 153 0 76
-0.620643 0.019120 0.269346 127 0 127
0.218025 -0.008935 -0.452704 0 127 127
-0.317438 0.000640 0.064467 127 0 127
0.043328 0.030012 -0.246396 0 127 127
-0.582681 0.019120 0.219938 127 0 127
0.557668 0.005015 0.352569 153 0 76
0.172157 0.005949 -0.257211 127 0 127
0.295312 -0.027671 0.173768 153 0 76
0.197630 -0.009191 -0.492769 0 127 127
0.083263 -0.017841 0.034548 76 153 0
0.078300 -0.009191 -0.313204 0 127 127
-0.298399 -0.005847 -0.241035 76 153 0
-0.222629 0.019120 0.183971 127 0 127
0.050151 0.000640 -0.109326 127 0 127
0.532621 -0.009191 -0.444256 0 127 127
-0.029801 0.019120 -0.041327 127 0 127
-0.525917 -0.002482 -0.179051 76 153 0
-0.376703 0.000640 0.150477 127 0 127
0.102979 0.011532 0.335736 153 0 76
0.511343 0.002521 0.376371 153 0 76
0.196576 -0.015626 0.155518 76 153 0
0.124581 -0.009191 -0.149382 0 127 127
0.025992 -0.025619 0.102903 76 153 0
0.190505 0.000640 -0.281574 127 0 127
-0.055153 0.019120 -0.051465 127 0 127
0.205974 0.018749 -0.213181 127 0 127
0.135508 0.011532 0.312239 153 0 76
-0.724193 0.016163 0.349671 127 0 127
-0.374915 -0.017841 -0.133293 76 153 0
0.120240 0.030012 -0.182902 0 127 127
-0.257923 0.000640 0.088281 127 0 127
0.158126 0.011532 0.272524 153 0 76
0.564203 0.022854 -0.473163 0 127 127
0.316007 0.006432 0.160047 153 0 76
0.067252 0.000640 -0.116625 127 0 127
0.128790 0.019120 -0.159014 127 0 127
0.097873 0.011532 0.185687 153 0 76
-0.213431 -0.017841 -0.123921 76 153 0
-0.755358 -0.017841 -0.309068 76 153 0
0.280875 0.002348 -0.172016 0 127 127
-0.186306 0.019120 0.041994 127 0 127
0.064912 0.003754 -0.393379 0 127 127
-0.783970 -0.000051 -0.331887 76 153 0
0.401552 -0.001578 0.548341 153 0 76
-0.510114 -0.017841 -0.241480 76 153 0
0.476453 -0.025885 0.254088 153 0 76
-0.004445 -0.005017 -0.130669 0 127 127
-0.696533 -0.005770 -0.274086 76 153 0
-0.414591 0.016808 0.249075 127 0 127
0.417560 0.008122 -0.233719 0 127 127
-0.045969 0.019120 0.005351 127 0 127
0.362535 -0.009191 -0.276031 0 127 127
-0.335366 -0.017841 -0.067389 76 153 0
-0.666675 0.006265 0.330982 127 0 127
0.317683 0.004669 -0.629121 0 127 127
-0.015903 -0.008195 0.165709 153 0 76
-0.016678 0.014466 -0.189776 0 127 127
0.513046 -0.009191 -0.351789 0 127 127
0.517032 -0.008902 -0.328626 0 127 127
0.342724 -0.009191 -0.236064 0 127 127
-0.100077 -0.017841 -0.167055 76 153 0
-0.243652 0.000640 0.037225 127 0 127
-0.362681 0.000640 -0.203955 76 153 0
-0.292067 0.000640 -0.085663 76 153 0
0.043609 -0.009191 -0.307534 0 127 127
-0.695267 0.000640 -0.301241 76 153 0
0.260704 0.001603 0.323708 153 0 76
-0.134044 0.000640 -0.007322 76 153 0
0.215276 0.000640 0.212773 76 153 0
0.382031 -0.027671 0.211992 153 0 76
0.173323 0.030012 -0.492064 0 127 127
-0.235477 0.019120 0.175574 127 0 127
0.187806 0.011532 0.144101 153 0 76
-0.024516 -0.010558 0.116502 153 0 76
0.151652 0.030012 -0.333088 0 127 127
-0.136018 0.000640 0.148315 127 0 127
0.493902 -0.014542 0.565794 153 0 76
0.491097 -0.027671 0.528572 153 0 76
0.199356 -0.000737 0.163908 76 153 0
-0.610902 0.000640 -0.246350 76 153 0
0.192805 0.026733 -0.537106 0 127 127
-0.457287 0.007863 0.262948 127 0 127
0.121975 -0.009191 -0.318575 0 127 127
-0.041400 0.019120 0.048147 127 0 127
0.166167 0.011532 0.386533 153 0 76
0.183679 0.011532 0.440699 153 0 76
-0.020629 0.000640 -0.030573 76 153 0
0.264228 -0.005799 -0.539780 0 127 127
-0.744176 0.000640 -0.346761 76 153 0
0.352779 0.009281 0.558173 153 0 76
-0.727414 -0.017841 -0.360192 76 153 0
0.188784 0.000640 -0.260675 127 0 127
-0.743942 0.000640 -0.373290 76 153 0
0.508530 0.019815 -0.483470 0 127 127
0.091496 0.011532 0.244333 153 0 76
0.251154 -0.009191 -0.251558 0 127 127
0.278386 -0.027671 0.548862 153 0 76
-0.148881 0.019120 0.130722 127 0 127
0.395348 0.030012 -0.275365 0 127 127
-0.541458 0.000640 0.188350 127 0 127
-0.203993 0.000640 -0.132218 76 153 0
-0.021801 -0.017841 0.042361 76 153 0
0.186407 0.010928 -0.154118 127 0 127
-0.574644 0.015209 0.301079 127 0 127
0.224313 -0.027671 0.162029 153 0 76
0.383019 -0.027671 0.589498 153 0 76
-0.758683 0.000640 0.360299 127 0 127
0.065561 0.016185 -0.162019 127 0 127
0.105713 0.000640 -0.090606 127 0 127
-0.229066 0.000640 -0.006363 76 153 0
0.243517 0.028228 -0.364220 0 127 127
-0.741236 -0.001342 -0.305488 76 153 0
-0.456380 0.019120 0.220082 127 0 127
0.470929 -0.021074 0.516418 153 0 76
-0.545687 0.000640 -0.316377 76 153 0
0.251768 -0.027671 0.274797 153 0 76
0.092346 0.011532 0.313887 153 0 76
-0.303119 0.000640 0.087833 127 0 127
0.239210 0.002702 -0.158239 0 127 127
-0.794357 -0.004531 -0.402162 76 153 0
-0.726470 -0.009636 -0.286699 76 153 0
-0.539358 -0.017841 -0.206463 76 153 0
-0.489737 0.019120 0.259121 127 0 127
0.233862 0.030012 -0.336251 0 127 127
0.090100 0.011532 0.138260 153 0 76
0.124050 0.000640 0.157513 76 153 0
0.203376 0.011532 0.206713 153 0 76
0.321926 -0.009191 -0.214438 0 127 127
-0.474242 -0.017841 -0.276923 76 153 0
0.509314 -0.002222 -0.302505 0 127 127
0.558054 0.028975 -0.456300 0 127 127
-0.725392 0.000640 0.306323 127 0 127
0.135059 -0.000540 0.013316 76 153 0
-0.193491 0.000640 -0.123386 76 153 0
0.314792 -0.009191 -0.242322 0 127 127
-0.795845 -0.009701 -0.326915 76 153 0
-0.360125 0.019120 0.190369 127 0 127
0.061095 0.026854 -0.372794 0 127 127
-0.128473 0.000640 0.079638 127 0 127
-0.559961 0.019120 0.190385 127 0 127
-0.255231 -0.017841 -0.187722 76 153 0
0.164687 0.000640 0.078393 76 153 0
-0.350023 -0.017841 -0.103567 76 153 0
-0.919955 -0.014085 -0.406658 76 153 0
0.201612 0.030012 -0.437306 0 127 127
0.232511 -0.027671 0.150337 153 0 76
-0.459664 0.000640 0.164531 127 0 127
0.122909 0.011532 0.281175 153 0 76
-0.540227 0.000640 -0.278761 76 153 0
0.323688 -0.027671 0.193153 153 0 76
0.232315 0.002816 -0.434171 0 127 127
0.056798 -0.017841 0.111616 76 153 0
0.570635 0.012141 -0.444835 0 127 127
-0.534432 0.000640 0.251880 127 0 127
0.232778 -0.027482 0.341819 153 0 76
0.010836 0.030012 -0.211257 0 127 127
0.532103 -0.008775 -0.531435 0 127 127
-0.879179 -0.017841 -0.413290 76 153 0
0.031946 -0.027671 0.118731 153 0 76
-0.648187 0.019120 0.278033 127 0 127
0.218734 -0.027671 0.454739 153 0 76
-0.165854 -0.004219 0.019015 127 0 127
0.220976 0.000640 -0.288836 127 0 127
-0.367984 -0.017841 -0.121427 76 153 0
0.182692 0.000640 0.215683 76 153 0
0.416630 -0.008067 0.543769 153 0 76
0.075707 -0.015602 0.138755 76 153 0
0.187532 0.011532 0.242955 153 0 76
0.200050 -0.009191 -0.354230 0 127 127
-0.874463 0.000640 -0.394722 76 153 0
0.026146 0.019120 0.007471 127 0 127
-0.197430 -0.017841 -0.194042 76 153 0
0.001569 0.011503 0.164488 153 0 76
-0.659190 0.000640 -0.278277 76 153 0
-0.585204 -0.017841 -0.317669 76 153 0
0.171995 0.028467 -0.150893 0 127 127
0.367792 0.029944 -0.226235 0 127 127
-0.546511 0.000640 -0.221082 76 153 0
-0.656532 0.008933 0.216530 127 0 127
-0.334148 0.000640 -0.085804 76 153 0
0.129663 0.030012 -0.394520 0 127 127
-0.455113 0.000640 0.221886 127 0 127
0.087702 -0.015448 -0.049673 76 153 0
-0.062729 0.000640 0.010422 127 0 127
0.387136 0.006892 0.601489 153 0 76
-0.492858 0.000640 -0.295254 76 153 0
-0.679130 0.019120 0.267060 127 0 127
0.063101 0.011532 0.154406 153 0 76
0.502115 0.029856 -0.529089 0 127 127
0.495699 0.002982 0.483513 153 0 76
0.213600 -0.027671 0.354368 153 0 76
0.354066 -0.027671 0.205874 153 0 76
-0.482360 0.019120 0.235517 127 0 127
-0.311541 -0.017841 -0.214062 76 153 0
0.117307 0.030012 -0.227881 0 127 127
-0.014443 -0.001556 -0.185998 0 127 127
0.191929 0.011532 0.454490 153 0 76
-0.514859 -0.002972 -0.311359 76 153 0
0.033617 0.030012 -0.273570 0 127 127
0.153174 -0.009191 -0.477244 0 127 127
-0.009063 0.000640 -0.053357 76 153 0
0.236088 0.011532 0.508168 153 0 76
0.253174 -0.009191 -0.224929 0 127 127
-0.829301 0.000640 0.363773 127 0 127
0.151987 0.030012 -0.411039 0 127 127
0.514261 0.011532 0.484583 153 0 76
0.131188 0.009097 -0.132512 0 127 127
-0.134194 0.000640 -0.135193 76 153 0
0.006494 0.021609 -0.264097 0 127 127
-0.729727 0.009868 0.260208 127 0 127
-0.141459 -0.017841 -0.076597 76 153 0
0.224810 0.027378 -0.435982 0 127 127
0.275239 0.020172 -0.607064 0 127 127
0.416316 0.011532 0.564519 153 0 76
-0.004509 0.009658 -0.238135 0 127 127
0.199427 0.030012 -0.268815 0 127 127
0.386257 -0.027550 0.254193 153 0 76
0.508481 0.028114 -0.570117 0 127 127
0.212319 0.019120 -0.286217 127 0 127
0.192325 0.030012 -0.384609 0 127 127
0.137535 -0.009191 -0.399270 0 127 127
0.502224 0.004519 -0.496580 0 127 127
0.199418 0.030012 -0.251091 0 127 127
0.518251 -0.025603 0.529725 153 0 76
0.092770 -0.017841 0.077426 76 153 0
0.113560 -0.027671 0.127039 153 0 76
0.087416 0.007173 0.020385 76 153 0
0.159320 0.030012 -0.251702 0 127 127
-0.245326 0.000640 -0.035702 76 153 0
0.012857 -0.022477 0.244928 153 0 76
-0.311643 0.000640 -0.232216 76 153 0
-0.037544 0.019120 -0.030297 127 0 127
-0.379971 0.000640 -0.111988 76 153 0
0.247339 0.030012 -0.236340 0 127 127
-0.525057 -0.017841 -0.214650 76 153 0
0.417482 0.030012 -0.279319 0 127 127
0.233822 0.030012 -0.201041 0 127 127
0.504759 -0.016849 0.358302 153 0 76
0.048228 0.030012 -0.278239 0 127 127
-0.527286 0.000640 0.164427 127 0 127
-0.744425 0.000640 -0.321642 76 153 0
-0.299914 -0.017841 -0.168526 76 153 0
-0.178267 0.005720 0.172289 127 0 127
-0.072152 0.003045 -0.087093 127 0 127
0.223701 0.011532 0.279290 153 0 76
-0.708063 0.019120 0.331658 127 0 127
0.274868 0.011532 0.191718 153 0 76
-0.624877 0.019120 0.220099 127 0 127
0.469054 0.007824 0.298855 153 0 76
0.069568 -0.027671 0.327781 153 0 76
-0.380286 0.000640 0.180840 127 0 127
0.100475 -0.027671 0.123398 153 0 76
0.001500 0.034142 -0.030171 127 127 0
-0.196043 0.000640 0.096902 127 0 127
-0.348891 -0.017841 -0.189082 76 153 0
0.292772 -0.009191 -0.286338 0 127 127
-0.270285 0.000640 -0.043277 76 153 0
0.189953 0.030012 -0.191425 0 127 127
0.078355 0.000640 0.119044 76 153 0
-0.403746 -0.013474 -0.275260 76 153 0
0.300297 0.011532 0.201138 153 0 76
0.131008 0.030012 -0.151218 0 127 127
-0.917796 0.001503 0.379352 127 0 127
-0.456724 0.000640 0.138345 127 0 127
0.182918 0.019120 -0.172005 127 0 127
-0.450228 0.019120 0.155213 127 0 127
-0.609041 0.019120 0.214952 127 0 127
0.549200 -0.008746 -0.491253 0 127 127
-0.134412 0.019120 0.155686 127 0 127
0.009271 0.003423 0.095823 127 0 127
0.206662 -0.014381 0.185957 76 153 0
-0.022484 -0.004422 0.133604 153 0 76
0.234305 -0.007690 -0.381162 0 127 127
0.160190 0.011532 0.198261 153 0 76
0.085236 0.011532 0.329991 153 0 76
-0.264231 0.000640 0.192494 127 0 127
0.112555 0.011532 0.128046 153 0 76
0.296527 0.023305 -0.562109 0 127 127
-0.194166 0.000640 0.125428 127 0 127
-0.018073 -0.020048 0.139798 153 0 76
0.058044 0.000640 -0.152970 127 0 127
-0.133528 0.019120 -0.045730 127 0 127
0.104541 -0.014340 0.421871 153 0 76
-0.246638 0.000640 -0.157812 76 153 0
-0.274206 -0.017841 -0.026078 76 153 0
-0.415900 0.008659 0.075337 127 0 127
0.432494 -0.007469 0.213132 153 0 76
-0.415623 0.000640 -0.275393 76 153 0
-0.074123 -0.017841 -0.018940 76 153 0
0.372018 -0.015505 0.269281 153 0 76
0.043346 0.011532 0.219218 153 0 76
0.110189 -0.001507 0.162060 76 153 0
0.008990 -0.009191 -0.178227 0 127 127
0.094251 -0.009191 -0.286832 0 127 127
-0.772589 0.000640 0.325931 127 0 127
0.533800 0.030012 -0.424318 0 127 127
0.014745 0.000640 0.024139 127 0 127
0.009053 0.011532 0.120674 153 0 76
-0.226673 -0.017841 -0.150037 76 153 0
0.032697 -0.004059 -0.128508 127 0 127
0.503446 0.007498 -0.388165 0 127 127
0.245693 -0.009191 -0.237713 0 127 127
0.186166 0.000640 0.231401 76 153 0
0.551224 0.030012 -0.440164 0 127 127
-0.229436 0.000640 0.116857 127 0 127
-0.514816 0.019120 0.198170 127 0 127
0.351617 0.011532 0.583369 153 0 76
0.094928 -0.027671 0.367750 153 0 76
0.056021 -0.027671 0.252592 153 0 76
0.307091 -0.009191 -0.214217 0 127 127
0.155390 0.011532 0.142255 153 0 76
0.188052 0.000640 -0.191131 127 0 127
0.461302 -0.009191 -0.582596 0 127 127
-0.691784 0.009715 0.237976 127 0 127
0.234517 -0.009191 -0.208415 0 127 127
-0.792262 0.000640 0.358770 127 0 127
-0.298384 0.000640 0.036122 127 0 127
0.248542 0.011532 0.185733 153 0 76
-0.829648 0.019120 0.343283 127 0 127
0.182107 0.000640 0.131650 76 153 0
0.143378 0.011532 0.251377 153 0 76
0.135044 0.030012 -0.181452 0 127 127
-0.405875 0.000640 -0.203785 76 153 0
0.197913 0.019120 -0.223950 127 0 127
-0.508727 -0.017841 -0.292198 76 153 0
0.530869 0.005172 0.298771 153 0 76
0.176938 -0.027671 0.433238 153 0 76
0.211370 -0.010133 0.119486 153 0 76
0.126782 0.000640 -0.167167 127 0 127
-0.465444 -0.017841 -0.149360 76 153 0
-0.242371 0.000640 0.135187 127 0 127
0.142245 -0.027671 0.264070 153 0 76
-0.385092 0.019120 0.129959 127 0 127
0.532761 -0.010649 0.294129 153 0 76
0.243715 -0.004150 0.356015 153 0 76
0.135370 -0.009191 -0.376189 0 127 127
0.070221 0.030012 -0.309510 0 127 127
0.198404 -0.027671 0.437327 153 0 76
0.312658 0.029985 -0.585591 0 127 127
0.155967 0.019120 -0.131241 127 0 127
-0.357117 0.019120 0.066202 127 0 127
0.237040 -0.025997 0.474844 153 0 76
-0.303353 0.000640 -0.000953 127 0 127
0.221972 0.007490 -0.571532 0 127 127
-0.525551 -0.014103 -0.314832 76 153 0
0.424816 -0.021922 0.596027 153 0 76
0.241847 0.026455 -0.577600 0 127 127
0.513893 -0.010318 0.548691 153 0 76
-0.465521 -0.006754 -0.295330 76 153 0
0.177055 -0.009191 -0.436712 0 127 127
0.098545 0.030012 -0.147775 0 127 127
-0.118715 0.000640 0.003850 76 153 0
0.124653 0.018143 -0.475757 0 127 127
0.479131 0.006794 0.510543 153 0 76
-0.199491 -0.017841 -0.175884 76 153 0
-0.402018 0.017395 0.244990 127 0 127
0.373279 -0.027073 0.563733 153 0 76
0.176478 0.011532 0.171292 153 0 76
-0.600607 0.009131 0.184289 127 0 127
-0.174927 0.000640 -0.093659 76 153 0
0.174461 -0.009191 -0.302446 0 127 127
-0.118832 0.019120 0.039776 127 0 127
0.228655 0.030012 -0.319916 0 127 127
0.230847 -0.014622 0.258953 76 153 0
-0.584360 -0.017841 -0.201209 76 153 0
0.185354 -0.027671 0.291649 153 0 76
0.412649 -0.024445 0.552772 153 0 76
-0.426633 0.000640 0.175574 127 0 127
-0.000321 -0.009191 -0.154470 0 127 127
0.141868 0.019120 -0.055131 127 0 127
0.560530 -0.005254 -0.476404 0 127 127
0.046234 0.011532 0.139581 153 0 76
-0.886242 -0.017841 -0.375980 76 153 0
-0.305900 0.000640 -0.126105 76 153 0
0.178082 0.019120 -0.266887 127 0 127
-0.215677 0.019120 0.067309 127 0 127
-0.034590 -0.017841 0.018206 76 153 0
0.165568 -0.009191 -0.391932 0 127 127
-0.250297 0.000640 0.106525 127 0 127
-0.150222 -0.017841 -0.138913 76 153 0
0.497563 0.018815 -0.507815 0 127 127
0.267404 0.030012 -0.232205 0 127 127
0.274881 -0.026707 0.526734 153 0 76
0.224740 -0.006957 -0.424790 0 127 127
0.081749 0.011532 0.193102 153 0 76
0.517984 0.030012 -0.360715 0 127 127
-0.083130 0.000640 -0.030255 127 0 127
-0.341863 0.000640 0.162573 127 0 127
0.028925 -0.027671 0.135527 153 0 76
0.148142 0.000640 -0.074955 127 0 127
0.280330 0.006110 0.521877 153 0 76
0.215780 -0.009191 -0.532601 0 127 127
0.398001 -0.014466 0.271982 153 0 76
-0.440223 -0.006742 -0.287111 76 153 0
0.207453 0.030012 -0.383017 0 127 127
-0.098925 -0.017841 -0.032596 76 153 0
0.062275 0.011532 0.238531 153 0 76
-0.358289 -0.017841 -0.080841 76 153 0
-0.386658 0.000640 0.202623 127 0 127
0.224021 0.009461 0.422608 153 0 76
-0.403684 0.000640 -0.261476 76 153 0
-0.013868 0.000640 0.091933 127 0 127
-0.156383 0.000640 -0.101351 76 153 0
-0.371012 -0.016077 -0.067943 76 153 0
0.115695 0.010336 0.418403 153 0 76
0.522689 0.028798 -0.329512 0 127 127
0.185104 -0.009191 -0.353653 0 127 127
0.488894 0.029220 -0.584370 0 127 127
0.197572 -0.009191 -0.301143 0 127 127
-0.285946 0.000640 -0.066092 76 153 0
0.209445 0.000640 0.247914 76 153 0
0.019862 0.019120 0.033469 127 0 127
0.527839 0.029674 -0.453889 0 127 127
-0.336133 0.000640 -0.219147 76 153 0
-0.279241 0.000640 0.150514 127 0 127
-0.077099 0.000640 -0.007926 76 153 0
-0.288116 0.000640 -0.104546 76 153 0
-0.363379 0.000640 0.052513 127 0 127
-0.244217 0.000640 0.063616 127 0 127
0.046530 -0.005331 0.094017 153 0 76
0.126589 0.000640 0.089230 76 153 0
-0.322198 0.000640 0.031953 127 0 127
0.192866 0.011029 0.499318 153 0 76
0.177028 0.000640 -0.179010 127 0 127
-0.254746 0.000640 0.158654 127 0 127
-0.327497 0.000640 0.074937 127 0 127
0.270111 -0.027671 0.256701 153 0 76
-0.154533 0.019120 -0.052448 127 0 127
0.181720 -0.009191 -0.368210 0 127 127
-0.431847 0.000640 -0.130073 76 153 0
0.025340 0.011532 0.186292 153 0 76
0.211783 -0.009191 -0.221709 0 127 127
-0.345237 0.012685 0.039760 127 0 127
-0.410245 0.000640 0.085360 127 0 127
0.436199 -0.019166 0.538381 153 0 76
-0.559641 0.000640 -0.209792 76 153 0
0.111860 -0.017841 0.084156 76 153 0
-0.883414 0.019120 0.370764 127 0 127
-0.597719 0.000640 0.196203 127 0 127
0.060434 0.011051 0.108957 153 0 76
0.025504 0.005588 -0.318270 0 127 127
0.140810 0.011532 0.429473 153 0 76
-0.146002 -0.017841 -0.175822 76 153 0
-0.251161 0.000640 -0.023349 127 0 127
0.147267 0.008801 0.461355 153 0 76
0.203693 0.011532 0.348158 153 0 76
-0.031991 0.000640 -0.057710 76 153 0
-0.621318 -0.004992 -0.345945 76 153 0
0.513919 -0.015153 0.415627 153 0 76
0.165321 0.000640 -0.191901 127 0 127
0.546591 0.027527 -0.515331 0 127 127
0.038564 0.011532 0.152764 153 0 76
-0.090104 -0.017841 -0.150948 76 153 0
-0.364673 0.019120 0.227282 127 0 127
0.366801 0.009977 0.259782 153 0 76
-0.537711 0.000640 -0.304183 76 153 0
-0.572235 -0.017841 -0.280049 76 153 0
-0.362980 0.000640 0.176646 127 0 127
0.250957 -0.009191 -0.551586 0 127 127
0.144740 -0.017841 0.162722 76 153 0
-0.020845 0.015205 0.110952 127 0 127
0.283820 -0.009191 -0.585051 0 127 127
0.207579 -0.027671 0.341263 153 0 76
0.197539 0.011532 0.361632 153 0 76
-0.291883 0.019120 0.119147 127 0 127
0.135945 -0.027671 0.158044 153 0 76
0.068951 0.018214 -0.126550 0 127 127
-0.074923 0.019120 0.121725 127 0 127
-0.501499 0.000640 -0.189786 76 153 0
0.081432 0.019120 -0.017767 127 0 127
0.507430 0.030012 -0.554589 0 127 127
0.015771 -0.009191 -0.153014 0 127 127
0.112695 0.019120 -0.029582 127 0 127
0.212933 0.030012 -0.204608 0 127 127
0.079731 -0.027671 0.166996 153 0 76
0.243059 -0.027671 0.172263 153 0 76
0.081118 0.004705 -0.172086 127 0 127
-0.195722 -0.017841 -0.041838 76 153 0
0.104709 -0.017841 -0.009554 76 153 0
0.077247 0.030012 -0.327441 0 127 127
0.453702 -0.019625 0.528601 153 0 76
0.204474 -0.017841 0.218614 76 153 0
0.028772 -0.026866 0.266522 153 0 76
0.384230 -0.004232 -0.631861 0 127 127
-0.520836 0.019000 0.283596 127 0 127
-0.481471 0.000640 -0.227429 76 153 0
-0.347152 0.000640 -0.105995 76 153 0
-0.060955 0.019120 0.060035 127 0 127
-0.110875 -0.017841 -0.000306 76 153 0
-0.195133 0.019120 0.074141 127 0 127
0.224096 -0.009191 -0.246760 0 127 127
0.531047 -0.027671 0.418542 153 0 76
0.117565 -0.002134 -0.012498 76 153 0
-0.598292 0.000640 -0.234739 76 153 0
-0.094710 0.000640 0.038522 76 153 0
0.217030 -0.009191 -0.264385 0 127 127
0.017553 0.000640 0.071184 127 0 127
0.247168 -0.016365 0.131107 153 0 76
0.226236 0.030012 -0.291907 0 127 127
-0.499704 -0.017841 -0.277284 76 153 0
0.061688 -0.009191 -0.145233 0 127 127
0.054529 0.019120 -0.019491 127 0 127
0.243096 0.011532 0.268464 153 0 76
-0.656294 -0.017841 -0.319184 76 153 0
0.203662 -0.009191 -0.239396 0 127 127
0.168976 -0.027671 0.271688 153 0 76
-0.510299 0.019120 0.239574 127 0 127
-0.214296 0.019120 0.035149 127 0 127
0.128727 0.000640 -0.105788 127 0 127
-0.440929 0.000640 -0.261600 76 153 0
0.276624 -0.009191 -0.192943 0 127 127
-0.409527 0.001386 0.059238 127 0 127
0.286297 0.030012 -0.248453 0 127 127
0.405653 0.030012 -0.603311 0 127 127
-0.203018 0.000640 -0.183786 76 153 0
0.137862 -0.017841 0.050108 76 153 0
0.556828 0.028901 -0.413043 0 127 127
-0.601341 -0.017841 -0.316532 76 153 0
0.019439 0.013385 -0.134257 127 0 127
-0.157646 0.000640 -0.129083 76 153 0
-0.646536 0.000640 0.313453 127 0 127
-0.011676 -0.026576 0.128942 153 0 76
0.269963 -0.009191 -0.232097 0 127 127
-0.484966 0.000640 0.230950 127 0 127
0.556992 0.006213 0.467280 153 0 76
-0.158392 0.019120 -0.029691 127 0 127
-0.807676 0.000640 0.336265 127 0 127
-0.156934 -0.017841 -0.185067 76 153 0
0.169543 0.019120 -0.226759 127 0 127
0.035782 0.015825 -0.340864 0 127 127
-0.318331 0.019120 0.197171 127 0 127
-0.333843 0.010447 0.029821 127 0 127
0.464734 0.030012 -0.303446 0 127 127
-0.510382 0.000640 0.268648 127 0 127
-0.642798 0.019120 0.249828 127 0 127
-0.106638 0.000640 0.132386 127 0 127
0.151308 0.000640 0.136490 76 153 0
-0.828492 0.000640 -0.385554 76 153 0
-0.217473 0.000640 0.174243 127 0 127
-0.307652 -0.017841 -0.120264 76 153 0
-0.353990 0.000640 -0.217560 76 153 0
0.074673 -0.027578 0.113034 153 0 76
0.210774 0.030012 -0.362475 0 127 127
0.494787 0.029914 -0.340991 0 127 127
-0.068220 0.019120 -0.074817 127 0 127
0.338146 -0.009191 -0.285553 0 127 127
-0.705167 0.002240 0.235222 127 0 127
0.199863 0.000640 0.260697 76 153 0
-0.018247 -0.017841 -0.003446 76 153 0
-0.342120 0.000640 0.070486 127 0 127
0.270588 -0.009191 -0.267317 0 127 127
0.178654 0.011532 0.223236 153 0 76
-0.495103 0.008680 0.121813 127 0 127
0.192831 0.019120 -0.266450 127 0 127
-0.008114 0.019120 -0.051543 127 0 127
0.129314 0.000640 0.050351 76 153 0
-0.353729 0.019120 0.128288 127 0 127
0.168874 0.030012 -0.326057 0 127 127
0.210374 -0.008256 0.269788 76 153 0
0.175169 -0.009191 -0.322352 0 127 127
0.230068 0.011532 0.484356 153 0 76
0.069995 0.003476 0.098674 153 0 76
-0.206536 -0.008551 -0.211191 76 153 0
0.292066 0.011532 0.230569 153 0 76
0.268374 0.030012 -0.208970 0 127 127
-0.142728 -0.008699 0.027517 76 153 0
0.155761 0.000640 0.179045 76 153 0
0.041650 0.000640 0.013694 76 153 0
0.478127 0.024914 -0.278928 0 127 127
0.198608 0.030012 -0.308551 0 127 127
-0.414236 -0.000735 -0.116343 76 153 0
0.295135 0.030012 -0.258985 0 127 127
0.062197 -0.017841 0.001948 76 153 0
0.388198 0.008705 -0.217691 0 127 127
0.297784 0.030012 -0.229878 0 127 127
0.169638 0.000640 -0.159818 127 0 127
0.144732 0.019120 -0.084246 127 0 127
-0.394407 0.000640 -0.158940 76 153 0
0.304173 0.010680 0.162944 153 0 76
0.096594 -0.009191 -0.241084 0 127 127
-0.043531 0.000640 0.049794 76 153 0
-0.555700 0.000640 0.253619 127 0 127
-0.350916 -0.017841 -0.248937 76 153 0
-0.434422 0.019120 0.215777 127 0 127
-0.060378 -0.017841 0.062133 76 153 0
-0.484716 0.000640 -0.249935 76 153 0
0.146047 -0.014432 0.188332 76 153 0
-0.448772 0.000640 -0.140787 76 153 0
0.139494 0.030012 -0.324910 0 127 127
-0.055749 0.019120 0.074121 127 0 127
0.178585 -0.000006 0.101335 76 153 0
0.166689 0.019120 -0.239578 127 0 127
-0.579549 -0.017841 -0.300933 76 153 0
-0.539011 -0.017841 -0.165118 76 153 0
0.198518 0.018612 -0.550449 0 127 127
0.091375 -0.017841 0.052532 76 153 0
0.034354 0.000640 -0.075011 76 153 0
0.035921 -0.011695 -0.099875 76 153 0
0.147751 0.000640 -0.192531 127 0 127
0.177162 -0.027671 0.417126 153 0 76
-0.170316 -0.017841 -0.034987 76 153 0
-0.754832 0.019120 0.346257 127 0 127
0.184905 -0.010181 0.120293 76 153 0
0.333934 -0.009121 0.604018 153 0 76
0.252428 -0.027671 0.222972 153 0 76
0.184315 -0.027671 0.226113 153 0 76
-0.303079 0.000640 0.115147 127 0 127
0.134119 -0.009191 -0.423904 0 127 127
0.026567 -0.018713 0.286540 153 0 76
0.382752 0.030012 -0.281042 0 127 127
-0.666238 0.000640 -0.307985 76 153 0
-0.500190 0.000640 0.159939 127 0 127
0.175158 0.019120 -0.200186 127 0 127
-0.401642 0.000640 0.108617 127 0 127
0.011511 0.030012 -0.187050 0 127 127
-0.254547 -0.017841 -0.016005 76 153 0
0.200818 -0.009191 -0.414925 0 127 127
-0.068737 -0.017841 -0.134743 76 153 0
0.554078 -0.006832 -0.386488 0 127 127
0.460022 0.002945 0.233517 153 0 76
-0.094090 0.000640 0.066812 127 0 127
0.026326 -0.009191 -0.166961 0 127 127
0.130015 -0.009191 -0.259878 0 127 127
0.042026 -0.017841 0.106281 76 153 0
0.398903 0.030012 -0.257960 0 127 127
0.055430 -0.004867 0.348764 153 0 76
-0.812570 0.000640 0.314861 127 0 127
0.432032 -0.004430 -0.249172 0 127 127
0.206190 0.019120 -0.251767 127 0 127
0.262621 0.009496 0.560133 153 0 76
-0.617650 -0.017841 -0.224369 76 153 0
0.148699 0.011532 0.224393 153 0 76
0.196790 -0.017841 0.237351 76 153 0
0.203594 0.008245 0.516859 153 0 76
-0.656371 -0.017841 -0.277439 76 153 0
-0.478702 -0.005091 -0.148410 76 153 0
-0.718359 -0.017841 -0.316118 76 153 0
-0.428159 -0.017841 -0.269343 76 153 0
0.058545 0.030012 -0.286205 0 127 127
0.208893 -0.009191 -0.203590 0 127 127
0.172993 0.000278 0.497638 153 0 76
-0.712862 0.000640 -0.297829 76 153 0
-0.448600 0.019120 0.194084 127 0 127
0.380861 0.007481 0.264002 153 0 76
0.569723 -0.005051 0.393847 153 0 76
0.210144 -0.009191 -0.436854 0 127 127
0.153224 0.000640 0.118769 76 153 0
-0.232762 -0.012217 -0.002866 76 153 0
0.529254 -0.009031 -0.427628 0 127 127
-0.182996 0.019120 0.131178 127 0 127
0.530519 0.030012 -0.483466 0 127 127
-0.516347 -0.006335 -0.168735 76 153 0
0.214216 -0.009191 -0.370972 0 127 127
-0.058317 -0.017841 -0.075165 76 153 0
0.220140 -0.027073 0.416554 153 0 76
0.232617 -0.027671 0.292166 153 0 76
0.108110 0.030012 -0.162999 0 127 127
0.355877 -0.003031 0.270955 153 0 76
0.091524 -0.027671 0.250339 153 0 76
0.120327 0.030012 -0.417398 0 127 127
0.153675 0.000640 -0.221467 127 0 127
-0.117904 -0.017841 -0.169489 76 153 0
0.318483 0.030012 -0.264274 0 127 127
-0.170203 0.019120 0.019824 127 0 127
0.177538 0.009866 0.122101 153 0 76
-0.442763 0.000640 0.128884 127 0 127
0.435649 0.010965 0.550668 153 0 76
-0.636234 -0.017841 -0.289424 76 153 0
0.086084 0.010103 0.377737 153 0 76
0.100567 0.000640 0.045814 76 153 0
-0.265764 0.000640 0.014927 127 0 127
-0.563447 0.000640 0.288822 127 0 127
-0.030209 0.000640 0.073474 76 153 0
0.063654 -0.009191 -0.159681 0 127 127
-0.229458 0.000640 -0.132483 76 153 0
0.022310 0.000640 -0.049747 76 153 0
-0.199824 0.019120 0.002418 127 0 127
0.108887 0.019120 -0.121332 127 0 127
-0.328002 0.000640 -0.104613 76 153 0
0.165526 -0.027671 0.151091 76 153 0
0.291419 0.030012 -0.586274 0 127 127
0.364578 -0.021374 0.180814 153 0 76
0.093727 0.019120 -0.170424 127 0 127
0.433710 0.027431 -0.619311 0 127 127
-0.699758 0.000640 -0.331276 76 153 0
0.107708 -0.009191 -0.389387 0 127 127
-0.649092 -0.003274 -0.354968 76 153 0
0.402243 0.022504 -0.580833 0 127 127
0.180602 0.011532 0.415041 153 0 76
-0.498781 -0.017841 -0.211992 76 153 0
0.248914 -0.009191 -0.299306 0 127 127
0.206637 0.030012 -0.465431 0 127 127
-0.213867 0.019120 0.093992 127 0 127
-0.677099 -0.006963 -0.261329 76 153 0
0.522659 0.011441 0.458768 153 0 76
-0.131479 -0.017841 0.018148 76 153 0
0.285503 0.008614 -0.549388 0 127 127
0.006425 0.000640 -0.024080 76 153 0
0.528904 0.030012 -0.498666 0 127 127
0.017207 0.017701 0.085288 127 0 127
0.498147 0.011532 0.508355 153 0 76
0.032491 0.030012 -0.148159 0 127 127
-0.167617 0.000640 0.059763 127 0 127
-0.227189 0.019120 0.000928 127 0 127
0.560300 0.006707 0.452801 153 0 76
0.131213 -0.027671 0.177512 153 0 76
0.500108 -0.008970 -0.310481 0 127 127
-0.644866 0.000640 0.251450 127 0 127
-0.342718 0.000640 0.134337 127 0 127
0.111866 -0.024859 0.108461 153 0 76
0.085542 0.011532 0.162251 153 0 76
-0.039213 0.000640 0.024635 76 153 0
-0.431378 0.002572 0.074198 127 0 127
-0.384728 0.000640 0.160978 127 0 127
0.166499 0.000836 -0.520021 0 127 127
-0.300264 0.019120 0.181677 127 0 127
-0.504715 0.000640 0.173688 127 0 127
-0.894810 0.000640 0.362780 127 0 127
0.102245 -0.006429 -0.032358 76 153 0
-0.464622 0.019120 0.245620 127 0 127
-0.482540 0.000640 0.138447 127 0 127
-0.100159 -0.017841 0.026718 76 153 0
-0.189110 -0.017841 -0.133674 76 153 0
-0.170004 0.000640 -0.043772 127 0 127
0.144482 0.000640 0.185221 76 153 0
0.450798 -0.001354 -0.319892 0 127 127
-0.427040 0.019120 0.164453 127 0 127
0.178907 0.030012 -0.227928 0 127 127
0.035607 0.010429 0.283422 153 0 76
0.069043 -0.017841 0.065861 76 153 0
-0.108601 0.000640 -0.068375 76 153 0
-0.879107 0.015014 0.397070 127 0 127
-0.843346 0.000640 -0.397754 76 153 0
0.534330 -0.027671 0.394540 153 0 76
-0.477144 0.019120 0.262329 127 0 127
-0.628073 0.000640 0.264314 127 0 127
0.065689 -0.001857 0.365207 153 0 76
0.136856 -0.017841 0.123228 76 153 0
0.528517 -0.027671 0.459782 153 0 76
0.071985 0.000640 -0.141278 127 0 127
0.124043 0.030012 -0.205669 0 127 127
0.109578 -0.009191 -0.154686 0 127 127
0.458293 -0.006140 -0.609543 0 127 127
0.186404 0.011532 0.307968 153 0 76
-0.202832 0.019120 0.179569 127 0 127
-0.152434 0.000640 0.082132 127 0 127
0.017846 -0.027671 0.112420 153 0 76
0.098523 0.000640 0.141680 76 153 0
-0.032760 -0.017841 -0.054440 76 153 0
0.039069 0.019120 -0.123947 0 127 127
0.328923 0.030012 -0.592140 0 127 127
-0.069621 0.000640 -0.038276 127 0 127
0.417355 -0.009191 -0.601548 0 127 127
0.543122 0.002385 0.506595 153 0 76
0.165775 -0.027671 0.369294 153 0 76
0.011394 0.000640 -0.117085 76 153 0
-0.773213 -0.017841 -0.318146 76 153 0
-0.113444 0.000640 0.046305 127 0 127
-0.697067 0.000640 0.296541 127 0 127
0.159608 -0.010409 0.057835 76 153 0
-0.373331 0.000640 0.036577 127 0 127
0.326101 0.010508 0.171576 153 0 76
-0.073616 -0.017841 -0.081395 76 153 0
-0.170352 -0.017841 -0.055685 76 153 0
0.040868 -0.009166 -0.140943 0 127 127
0.514873 0.024166 -0.309282 0 127 127
0.167062 -0.009191 -0.200717 0 127 127
0.252514 0.019361 -0.514350 0 127 127
-0.339560 0.000640 0.189626 127 0 127
-0.064654 -0.017841 -0.151392 76 153 0
-0.444712 0.019120 0.167374 127 0 127
0.305082 -0.027671 0.193856 153 0 76
-0.270114 0.019120 0.157920 127 0 127
0.175327 -0.027671 0.474217 153 0 76
-0.236557 0.000640 0.155064 127 0 127
0.141567 0.000640 0.096978 76 153 0
-0.260553 0.000640 0.060426 127 0 127
-0.283295 0.000640 0.029511 127 0 127
0.231097 0.030012 -0.273795 0 127 127
-0.296720 0.000640 0.126440 127 0 127
0.158967 -0.027671 0.427250 153 0 76
0.553882 -0.016015 0.333950 153 0 76
0.217807 0.011532 0.156895 153 0 76
-0.486331 -0.017841 -0.282310 76 153 0
-0.704152 0.000640 -0.349979 76 153 0
0.025015 -0.008939 -0.138801 0 127 127
-0.361018 0.015992 0.053607 127 0 127
-0.295541 0.016233 0.015783 127 0 127
0.167540 0.011532 0.148035 153 0 76
-0.778286 0.002157 0.367247 127 0 127
-0.453574 0.000640 -0.261554 76 153 0
0.538996 0.006456 -0.333573 0 127 127
-0.003857 0.029897 -0.171026 0 127 127
-0.082374 0.019120 0.032705 127 0 127
0.494693 0.012340 -0.284640 0 127 127
-0.471703 0.000640 0.206410 127 0 127
-0.232328 0.017452 -0.019512 127 0 127
-0.039950 0.000640 0.091688 127 0 127
-0.321993 0.000640 0.051424 127 0 127
-0.413839 -0.017841 -0.206565 76 153 0
0.149464 -0.005157 0.037835 76 153 0
0.060120 0.000640 0.082812 76 153 0
0.116552 0.011532 0.375970 153 0 76
0.100694 0.030012 -0.366858 0 127 127
0.289495 0.030012 -0.294850 0 127 127
0.163543 -0.017841 0.128189 76 153 0
0.186945 -0.017841 0.147321 76 153 0
0.116952 0.019120 -0.106809 127 0 127
0.229759 -0.027671 0.518838 153 0 76
0.224200 -0.009191 -0.504669 0 127 127
-0.589280 -0.017841 -0.258156 76 153 0
0.139596 0.019120 -0.190609 127 0 127
0.111377 0.005377 -0.460925 0 127 127
-0.130146 0.019120 0.079454 127 0 127
0.460986 -0.008831 -0.567974 0 127 127
0.008158 0.019120 -0.073793 127 0 127
0.100489 0.000640 -0.072063 127 0 127
0.113775 -0.017841 0.030988 76 153 0
0.123682 0.000640 -0.027640 127 0 127
-0.391888 -0.009046 -0.271408 76 153 0
-0.052341 0.000640 0.002568 76 153 0
0.238620 -0.027671 0.497312 153 0 76
0.323480 -0.027671 0.177318 153 0 76
-0.223157 0.000640 0.042517 127 0 127
0.274736 -0.003923 -0.603007 0 127 127
-0.143112 0.000640 -0.037716 76 153 0
0.564155 0.011365 -0.490284 0 127 127
0.341104 0.011532 0.253391 153 0 76
0.475412 0.010020 0.254179 153 0 76
0.202122 0.030012 -0.421884 0 127 127
-0.813008 0.000640 0.297854 127 0 127
0.213081 0.024001 -0.558877 0 127 127
-0.477228 0.019120 0.168493 127 0 127
-0.009034 -0.017841 -0.012037 76 153 0
0.141982 0.030012 -0.385002 0 127 127
-0.686614 -0.017841 -0.288274 76 153 0
0.071727 0.000640 -0.029515 76 153 0
0.339479 -0.027671 0.229190 153 0 76
-0.017139 0.005067 0.139916 153 0 76
-0.844629 -0.017841 -0.365290 76 153 0
0.061146 -0.009191 -0.248429 0 127 127
0.518179 0.006500 0.400808 153 0 76
0.171352 -0.027671 0.404538 153 0 76
0.535349 0.002204 -0.550637 0 127 127
0.256375 0.011532 0.214419 153 0 76
0.065230 -0.009191 -0.272355 0 127 127
-0.214896 0.000640 0.131478 127 0 127
-0.051273 0.000640 -0.116890 76 153 0
-0.297969 0.000640 0.048686 127 0 127
-0.329918 0.017925 0.221563 127 0 127
0.297972 -0.027671 0.567021 153 0 76
-0.133838 0.000640 -0.077779 76 153 0
-0.387462 -0.017841 -0.256635 76 153 0
-0.206805 0.019120 0.133183 127 0 127
-0.307378 0.019120 0.129577 127 0 127
0.180245 -0.027671 0.179891 153 0 76
0.302043 -0.009191 -0.200517 0 127 127
0.180146 0.030012 -0.452205 0 127 127
-0.641929 0.000640 0.291509 127 0 127
0.407302 -0.009191 -0.254789 0 127 127
0.542591 0.030012 -0.389114 0 127 127
-0.505773 0.000640 -0.256532 76 153 0
0.021512 0.005551 0.097776 153 0 76
0.201464 0.019120 -0.235990 127 0 127
-0.028680 0.019120 0.025311 127 0 127
-0.444731 0.009710 0.093774 127 0 127
0.543883 -0.020957 0.501271 153 0 76
-0.252720 0.000640 -0.121695 76 153 0
-0.904625 0.009336 0.361134 127 0 127
0.114364 0.030012 -0.214090 0 127 127
0.202092 0.030012 -0.477156 0 127 127
-0.368446 0.000640 0.202374 127 0 127
0.220385 -0.009191 -0.401516 0 127 127
-0.220714 0.000640 -0.030806 127 0 127
-0.190681 -0.007907 0.010274 76 153 0
0.522093 -0.027265 0.304109 153 0 76
0.242760 0.029459 -0.520974 0 127 127
-0.266391 -0.017841 -0.211193 76 153 0
-0.083972 0.009469 -0.081761 127 0 127
-0.325946 0.000640 0.214379 127 0 127
0.180347 -0.009191 -0.341946 0 127 127
0.252639 0.000467 -0.365167 0 127 127
-0.131629 0.005103 -0.061675 76 153 0
0.140298 -0.009191 -0.340066 0 127 127
0.176284 0.030012 -0.342136 0 127 127
0.095722 -0.004641 0.098264 153 0 76
-0.724768 -0.008544 -0.379553 76 153 0
0.230741 0.011532 0.240599 153 0 76
0.257914 -0.009568 0.490205 153 0 76
-0.788408 0.007886 0.291841 127 0 127
-0.274186 0.000640 0.112882 127 0 127
-0.434825 0.000640 -0.249452 76 153 0
-0.376137 -0.017841 -0.095898 76 153 0
-0.114037 -0.017841 -0.070619 76 153 0
0.483619 0.030012 -0.560552 0 127 127
0.175756 0.030012 -0.276707 0 127 127
0.520441 0.011532 0.499995 153 0 76
-0.001921 -0.017841 -0.107950 76 153 0
-0.299696 0.000640 0.139892 127 0 127
0.098541 0.005180 -0.443604 0 127 127
-0.327043 0.000640 -0.246042 76 153 0
0.377480 -0.009191 -0.598857 0 127 127
0.258253 -0.009191 -0.280197 0 127 127
-0.049674 0.019120 0.107475 127 0 127
0.174440 0.011532 0.327482 153 0 76
-0.003559 -0.017841 0.081755 76 153 0
0.466678 0.029556 -0.281854 0 127 127
0.064417 0.009304 0.044544 127 0 127
-0.294466 0.000640 -0.135211 76 153 0
-0.291969 -0.005506 -0.038618 76 153 0
-0.241162 0.019120 0.146328 127 0 127
0.093447 0.000640 -0.168249 127 0 127
-0.084596 -0.017841 0.005427 76 153 0
-0.642345 0.000640 0.211427 127 0 127
-0.506394 -0.017841 -0.174434 76 153 0
0.548346 -0.009191 -0.418825 0 127 127
0.271293 0.030012 -0.301046 0 127 127
-0.797797 -0.017841 -0.347870 76 153 0
-0.836483 0.000640 0.323179 127 0 127
-0.208884 0.000640 -0.022469 76 153 0
-0.003457 0.019120 -0.099562 127 0 127
0.231243 -0.009191 -0.233993 0 127 127
0.510974 -0.022419 0.456300 153 0 76
0.514999 -0.006144 -0.482948 0 127 127
0.236837 0.006712 0.461792 153 0 76
-0.149940 0.019120 0.117068 127 0 127
0.179051 0.011532 0.467710 153 0 76
-0.630950 0.019120 0.282609 127 0 127
0.146648 0.027775 -0.489063 0 127 127
0.393200 -0.009191 -0.269632 0 127 127
0.477404 -0.027671 0.535526 153 0 76
-0.012176 -0.017841 -0.036216 76 153 0
0.532000 0.012277 -0.322682 0 127 127
0.550967 0.007271 -0.525830 0 127 127
0.136539 0.019120 -0.070777 127 0 127
-0.132578 -0.017841 -0.097774 76 153 0
0.206140 0.030012 -0.282322 0 127 127
-0.338577 -0.017841 -0.112399 76 153 0
0.448751 0.007150 -0.622456 0 127 127
-0.638829 -0.004074 -0.242663 76 153 0
0.328346 0.005149 0.547775 153 0 76
-0.718970 0.000640 -0.363919 76 153 0
0.253063 0.030012 -0.189622 0 127 127
0.563640 -0.002469 -0.405894 0 127 127
-0.597598 -0.017841 -0.240767 76 153 0
0.369903 -0.027671 0.588587 153 0 76
-0.100497 0.019120 0.134124 127 0 127
-0.180999 0.000640 -0.147782 76 153 0
0.327966 -0.027671 0.204826 153 0 76
0.091364 0.028239 -0.137543 0 127 127
0.504279 0.001743 0.555606 153 0 76
-0.107578 -0.017841 -0.043844 76 153 0
0.000553 0.019120 0.071613 127 0 127
0.123042 -0.017841 0.115555 76 153 0
-0.093721 0.000640 -0.123919 76 153 0
0.069724 -0.009191 -0.173396 0 127 127
0.422415 0.009476 -0.631356 0 127 127
-0.804431 0.000640 0.367017 127 0 127
-0.577013 0.000640 0.265051 127 0 127
0.166472 0.030012 -0.370109 0 127 127
-0.452302 -0.017841 -0.278470 76 153 0
-0.012687 -0.010130 0.097988 153 0 76
0.268392 -0.009191 -0.301522 0 127 127
-0.785300 0.000640 0.324833 127 0 127
0.358514 0.005021 -0.300311 0 127 127
0.079523 -0.020140 0.381773 153 0 76
-0.393734 0.019120 0.082336 127 0 127
0.023289 -0.009191 -0.196960 0 127 127
-0.226490 -0.017841 -0.186704 76 153 0
-0.852190 0.000640 0.359598 127 0 127
-0.465349 0.019120 0.132616 127 0 127
0.433944 -0.009191 -0.280218 0 127 127
-0.849318 0.019120 0.359197 127 0 127
0.135512 0.011532 0.331961 153 0 76
-0.157613 -0.017841 -0.117314 76 153 0
0.061536 0.000640 -0.085808 127 0 127
-0.181042 0.000640 -0.064618 76 153 0
0.140310 0.000640 -0.148919 127 0 127
-0.214167 0.019120 0.157482 127 0 127
0.493494 0.011532 0.288227 153 0 76
0.153440 0.025426 -0.142511 127 0 127
0.037200 0.000640 -0.112604 127 0 127
0.211782 -0.027671 0.138801 153 0 76
0.201815 -0.009191 -0.186668 0 127 127
-0.212800 0.000640 -0.083383 76 153 0
-0.577961 0.000618 -0.213078 76 153 0
0.484147 0.011532 0.539222 153 0 76
0.309424 -0.027491 0.169216 153 0 76
-0.130177 -0.017841 -0.001851 76 153 0
0.373089 0.011532 0.239067 153 0 76
0.118397 0.011532 0.397299 153 0 76
0.001302 0.029863 -0.196651 0 127 127
0.222398 -0.027671 0.257263 153 0 76
0.151937 -0.027671 0.238069 153 0 76
-0.132187 -0.010973 -0.187037 76 153 0
-0.352285 0.000640 -0.194233 76 153 0
-0.191129 -0.017841 -0.116484 76 153 0
0.178981 -0.009191 -0.396216 0 127 127
0.212315 -0.017841 0.229659 76 153 0
-0.312070 -0.017841 -0.078823 76 153 0
0.471453 -0.009191 -0.309819 0 127 127
0.056805 -0.015813 -0.081371 76 153 0
0.193907 0.011532 0.292055 153 0 76
-0.659746 -0.017841 -0.252428 76 153 0
-0.181789 0.008725 -0.043121 127 0 127
0.294597 -0.006005 -0.315137 0 127 127
0.163552 0.011532 0.160002 153 0 76
-0.146834 -0.017841 -0.151912 76 153 0
0.480195 0.026335 -0.339083 0 127 127
0.521800 -0.026119 0.435616 153 0 76
-0.692554 0.019120 0.323542 127 0 127
-0.324112 0.000640 -0.184065 76 153 0
