ply
format ascii 1.0
element vertex 1274
property float x
property float y
property float z
property uchar red
property uchar green
property uchar blue
end_header
-0.200009 0.270679 -0.173050 76 153 0
0.290612 0.462279 -0.056694 76 153 0
-0.266919 0.263712 0.146150 76 153 0
0.220426 -0.059307 -0.194616 76 153 0
-0.223234 -0.401572 -0.220643 76 153 0
-0.082561 0.657583 -0.110066 76 153 0
-0.201975 -0.276565 0.214362 76 153 0
0.100432 -0.143441 -0.227164 76 153 0
-0.371916 -0.243041 -0.017083 76 153 0
0.117332 0.903009 0.138162 76 0 153
0.270084 -0.797697 -0.122125 76 153 0
0.262601 -0.283897 -0.199034 76 153 0
0.330287 -0.128949 -0.145522 76 153 0
0.149711 -0.861733 0.047412 76 153 0
0.380324 -0.314688 -0.031010 76 153 0
0.379169 -0.291882 0.018510 76 153 0
-0.366158 -0.497541 -0.039793 76 153 0
-0.281409 -0.255009 -0.189330 76 153 0
0.060823 0.171462 -0.208766 76 153 0
-0.090883 0.402298 0.186448 76 153 0
-0.314852 -0.719702 0.005597 76 153 0
0.320934 0.237073 -0.016448 76 153 0
-0.081798 -0.341186 0.241263 76 153 0
-0.274474 -0.082033 0.174482 76 153 0
0.112349 0.657583 -0.050514 76 153 0
-0.317647 0.038070 0.120430 76 153 0
0.330917 0.003660 -0.105829 76 153 0
0.324891 -0.688170 0.006541 76 153 0
-0.195778 -0.044014 0.197657 76 153 0
-0.247563 -0.731106 -0.152481 76 153 0
-0.161778 0.369845 -0.176007 76 153 0
0.320917 -0.462745 0.175131 76 153 0
0.133730 0.781379 -0.122795 76 0 153
-0.083036 -0.063166 -0.223031 76 153 0
-0.313663 0.264258 0.029390 76 153 0
0.258295 0.626436 0.091300 76 153 0
0.003301 0.605384 0.178708 76 153 0
-0.208728 -0.205293 0.206962 76 153 0
-0.048439 0.454918 0.187345 76 153 0
-0.037179 -0.324496 -0.245505 76 153 0
0.360712 -0.293283 -0.119375 76 153 0
0.211849 0.293341 -0.167852 76 153 0
0.227325 0.589660 0.134333 76 153 0
0.264850 -0.147981 0.184783 76 153 0
0.010685 -0.573224 -0.226890 76 153 0
-0.318838 -0.574694 0.141331 76 153 0
0.349848 -0.552408 0.074778 76 153 0
0.121143 -0.719482 0.190367 76 153 0
-0.168610 0.065266 0.196199 76 153 0
-0.128948 -0.649946 0.200213 76 153 0
0.310871 0.313086 0.026707 76 153 0
-0.110840 0.983954 0.132476 76 0 153
0.203567 0.170041 -0.181090 76 153 0
-0.246763 -0.658469 -0.167646 76 153 0
-0.314170 -0.443872 -0.182948 76 153 0
0.319598 -0.596283 -0.133042 76 153 0
0.179060 0.781379 -0.035824 76 0 153
-0.178723 0.857580 0.020617 76 0 153
-0.277755 -0.302886 0.192613 76 153 0
-0.269896 0.632789 -0.004690 76 153 0
-0.015646 -0.592711 -0.223506 76 153 0
-0.011379 0.503583 0.185543 76 153 0
0.376123 -0.318390 -0.066038 76 153 0
0.333156 0.130642 -0.013435 76 153 0
0.120806 0.837868 0.135496 76 0 153
0.099377 0.373918 0.187475 76 153 0
0.011498 0.538290 -0.185180 76 153 0
-0.343847 -0.605662 0.001919 76 153 0
0.316887 0.210754 -0.069402 76 153 0
0.192919 0.358183 -0.168899 76 153 0
-0.107833 -0.828824 0.173987 76 153 0
-0.365992 -0.194486 -0.021104 76 153 0
-0.359572 -0.534921 0.016809 76 153 0
-0.287728 -0.826538 0.008755 76 153 0
0.246899 0.145000 0.166271 76 153 0
-0.328775 0.081055 -0.071246 76 153 0
-0.379446 -0.417745 -0.090379 76 153 0
-0.346492 -0.026290 -0.027272 76 153 0
-0.013607 0.913172 -0.181782 76 0 153
-0.075929 0.217979 0.201446 76 153 0
-0.052463 0.693847 -0.139732 153 0 76
0.144955 0.696781 0.038934 153 0 76
0.216866 0.364623 -0.160121 76 153 0
-0.206720 0.123370 0.181128 76 153 0
-0.064271 0.983954 -0.041102 76 0 153
-0.153742 -0.472132 -0.227602 76 153 0
-0.146350 0.344270 -0.182090 76 153 0
-0.131780 0.395944 0.179369 76 153 0
0.053041 -0.861733 -0.150786 76 153 0
0.169519 0.983954 -0.005627 76 0 153
0.158187 0.565952 0.160065 76 153 0
-0.049531 0.983954 -0.032914 76 0 153
-0.099069 -0.861733 -0.138691 76 153 0
0.268601 -0.516266 -0.187879 76 153 0
-0.180906 0.871122 -0.006066 76 0 153
0.101812 -0.506762 -0.230914 76 153 0
0.109255 -0.774527 -0.185325 76 153 0
-0.105713 0.232594 -0.198486 76 153 0
-0.207123 -0.221688 -0.210703 76 153 0
-0.016660 -0.439123 0.246016 76 153 0
-0.260371 0.633398 0.070029 76 153 0
-0.110628 0.126532 0.203493 76 153 0
-0.137137 0.950560 -0.118374 76 0 153
-0.129761 -0.820579 -0.173320 76 153 0
-0.343375 -0.597734 -0.022581 76 153 0
0.110336 0.983954 -0.122969 76 0 153
0.243511 -0.615863 -0.177626 76 153 0
-0.047390 0.962986 0.174958 76 0 153
0.313500 -0.708701 0.054076 76 153 0
0.249116 0.645267 -0.075915 76 153 0
0.320313 -0.113125 0.158654 76 153 0
0.297252 -0.772283 -0.058779 76 153 0
-0.353384 -0.086776 -0.025964 76 153 0
-0.029435 -0.673595 0.208030 76 153 0
-0.306862 0.301773 -0.051414 76 153 0
-0.281971 0.524819 0.050203 76 153 0
-0.381467 -0.376791 0.055390 76 153 0
-0.345915 -0.231465 0.129775 76 153 0
-0.213615 -0.754562 -0.160829 76 153 0
0.094583 -0.043636 0.218564 76 153 0
-0.221751 -0.619569 -0.183623 76 153 0
-0.212646 -0.533044 -0.202668 76 153 0
0.070028 -0.640761 -0.212618 76 153 0
0.092751 -0.861733 0.151318 76 153 0
0.118696 0.218314 0.195538 76 153 0
0.099086 0.131014 -0.207451 76 153 0
-0.083660 0.166380 0.204323 76 153 0
-0.038082 -0.226103 -0.238474 76 153 0
-0.276563 -0.530942 -0.181176 76 153 0
-0.314811 -0.688190 -0.067776 76 153 0
0.323375 0.212695 0.016453 76 153 0
0.267098 -0.155071 -0.186634 76 153 0
0.206723 -0.736297 -0.167446 76 153 0
0.223527 -0.215464 -0.206491 76 153 0
0.298211 -0.559064 0.165073 76 153 0
0.099426 -0.100717 0.222158 76 153 0
0.214559 -0.861733 0.017317 76 153 0
-0.276250 -0.649638 -0.156925 76 153 0
-0.058686 0.510573 -0.184207 76 153 0
-0.327808 -0.066238 0.125926 76 153 0
0.047462 0.966948 0.175599 76 0 153
-0.283753 -0.843876 0.006027 76 153 0
-0.063883 -0.246555 0.236401 76 153 0
-0.106998 -0.796937 0.179518 76 153 0
0.333114 0.092891 0.043594 76 153 0
0.179087 0.826560 -0.037198 76 0 153
-0.129803 0.940659 -0.127932 76 0 153
0.357814 -0.117247 -0.035355 76 153 0
0.203321 -0.593154 0.193036 76 153 0
0.003142 0.001014 -0.223694 76 153 0
0.289227 -0.665382 0.147080 76 153 0
0.259083 -0.436582 0.204233 76 153 0
-0.021108 0.657583 -0.015522 76 153 0
0.276098 0.578896 0.066493 76 153 0
-0.275460 0.556742 -0.074748 76 153 0
0.133393 -0.615945 -0.207568 76 153 0
0.018190 -0.464741 -0.243971 76 153 0
0.280311 0.612055 0.006727 76 153 0
0.085814 -0.861733 -0.157877 76 153 0
-0.073426 -0.768883 -0.191126 76 153 0
0.326014 0.117508 -0.078767 76 153 0
0.345748 -0.450465 0.162332 76 153 0
0.144995 -0.584615 0.208665 76 153 0
-0.087398 0.983954 0.017557 76 0 153
0.381036 -0.358042 -0.062189 76 153 0
-0.146216 0.657194 -0.109916 76 153 0
-0.267536 -0.224859 -0.191579 76 153 0
0.329720 -0.629330 0.081599 76 153 0
-0.213629 -0.519059 0.202865 76 153 0
0.246563 -0.706756 -0.158889 76 153 0
-0.283086 0.564555 -0.010231 76 153 0
0.147097 0.214226 -0.192584 76 153 0
0.005251 0.206564 0.206974 76 153 0
-0.311993 0.108925 -0.115709 76 153 0
0.185432 0.086512 -0.192718 76 153 0
0.116285 -0.061797 0.216976 76 153 0
-0.186842 0.147891 0.184880 76 153 0
-0.064525 0.928478 0.167860 76 0 153
0.170987 0.174685 0.187546 76 153 0
0.308888 -0.724866 -0.060439 76 153 0
-0.106608 0.746502 0.102424 153 0 76
0.380185 -0.352642 0.062068 76 153 0
-0.175082 0.657583 0.050992 76 153 0
-0.079477 0.831161 -0.126465 153 0 76
-0.315134 -0.606041 0.129969 76 153 0
0.261238 -0.678652 0.156349 76 153 0
-0.176862 0.983954 -0.012731 76 0 153
0.287137 -0.692840 0.142335 76 153 0
0.365253 -0.410071 0.140006 76 153 0
-0.030331 0.229107 0.204363 76 153 0
-0.170757 0.591666 -0.156064 76 153 0
0.293402 0.452382 -0.043861 76 153 0
0.339276 -0.000809 -0.077893 76 153 0
-0.130687 0.983954 0.079991 76 0 153
0.226155 -0.861733 -0.094207 76 153 0
0.117284 -0.840732 -0.172669 76 153 0
0.046593 -0.423154 -0.249579 76 153 0
0.159130 0.319163 0.179278 76 153 0
-0.193467 -0.123077 -0.206526 76 153 0
0.001535 0.138688 -0.213963 76 153 0
-0.103821 -0.385503 0.242029 76 153 0
-0.033029 0.604705 0.177574 76 153 0
-0.138823 -0.466823 0.229248 76 153 0
0.190558 -0.403834 0.228006 76 153 0
-0.364554 -0.268787 -0.094735 76 153 0
-0.177057 0.806791 0.033273 76 0 153
-0.181788 0.630541 -0.142731 76 153 0
-0.108390 -0.122723 -0.224530 76 153 0
0.114604 0.657583 0.017092 76 153 0
0.026314 0.653864 0.141784 76 153 0
0.201394 -0.001343 -0.195439 76 153 0
0.080486 0.657583 0.037430 76 153 0
0.218558 0.644373 0.115084 76 153 0
0.345439 -0.411585 0.175133 76 153 0
0.235687 -0.861733 0.049727 76 153 0
-0.082225 0.617047 0.170681 76 153 0
-0.007698 -0.292286 0.242273 76 153 0
-0.277403 -0.421776 -0.201981 76 153 0
0.194398 -0.628411 -0.191157 76 153 0
-0.056632 0.678507 0.135962 153 0 76
-0.261299 0.521296 -0.119390 76 153 0
0.079859 0.653188 -0.140900 76 153 0
-0.283699 -0.348462 -0.196434 76 153 0
0.320345 -0.614988 0.117100 76 153 0
0.061071 -0.769816 -0.192596 76 153 0
0.385553 -0.351887 0.020655 76 153 0
-0.325603 -0.678552 -0.004108 76 153 0
-0.176174 -0.645283 0.190339 76 153 0
-0.176088 0.979083 0.040636 76 0 153
-0.269812 0.136114 0.156561 76 153 0
-0.143703 0.983954 0.071197 76 0 153
0.379219 -0.370680 -0.086652 76 153 0
0.220981 -0.861733 -0.128114 76 153 0
-0.294418 0.342406 0.088902 76 153 0
0.282864 -0.341359 0.194882 76 153 0
0.350581 -0.062466 -0.044057 76 153 0
-0.304357 -0.012776 0.155352 76 153 0
-0.089481 -0.297599 0.237257 76 153 0
-0.312744 0.266643 -0.036380 76 153 0
0.146760 0.194075 0.192131 76 153 0
-0.146781 0.665878 -0.016629 153 0 76
0.041206 -0.289968 -0.242985 76 153 0
0.266749 0.556974 -0.101465 76 153 0
0.315772 -0.688229 0.075695 76 153 0
-0.099854 0.172584 0.202048 76 153 0
-0.001303 -0.786872 0.190942 76 153 0
0.243872 -0.800808 -0.140720 76 153 0
-0.323180 0.166827 -0.041351 76 153 0
0.199108 -0.174923 -0.209729 76 153 0
0.004042 -0.061962 0.226113 76 153 0
-0.343449 -0.464554 0.153251 76 153 0
0.024857 0.092306 0.214377 76 153 0
-0.111266 -0.861733 0.133054 76 153 0
0.041802 -0.731074 0.198462 76 153 0
-0.270933 0.256412 -0.147122 76 153 0
-0.145604 0.768217 -0.025564 153 0 76
-0.312398 -0.645995 -0.112724 76 153 0
-0.312806 -0.703010 -0.054866 76 153 0
0.295213 -0.794393 0.030262 76 153 0
0.183125 0.829904 0.004501 76 0 153
0.257782 -0.430572 -0.207845 76 153 0
-0.110762 0.961078 0.141453 76 0 153
-0.006122 0.907583 0.180742 76 0 153
0.311394 0.006795 -0.152058 76 153 0
-0.052252 0.074088 0.214484 76 153 0
-0.370671 -0.213262 -0.001412 76 153 0
-0.088376 0.038630 0.213046 76 153 0
-0.348166 -0.271871 0.135972 76 153 0
0.075894 0.259201 0.198719 76 153 0
0.260558 0.299835 0.146554 76 153 0
0.160504 0.912665 0.087609 76 0 153
-0.342914 -0.495475 -0.136541 76 153 0
-0.012979 0.061281 -0.218963 76 153 0
-0.104762 0.097132 0.206788 76 153 0
0.049790 -0.744917 0.195876 76 153 0
-0.312999 -0.594254 -0.144785 76 153 0
-0.252535 -0.140880 0.187636 76 153 0
-0.290668 0.440546 -0.057295 76 153 0
-0.264303 -0.416680 0.205427 76 153 0
0.060538 0.515369 -0.183908 76 153 0
-0.003606 -0.426681 0.248488 76 153 0
-0.265633 0.618741 0.076332 76 153 0
-0.147670 -0.861733 -0.109135 76 153 0
-0.230383 -0.709663 -0.163574 76 153 0
0.364204 -0.178476 -0.038491 76 153 0
0.176690 -0.608121 -0.199423 76 153 0
0.319053 0.062664 -0.117485 76 153 0
-0.010917 -0.813931 -0.188284 76 153 0
0.081449 0.292360 -0.197729 76 153 0
0.193391 -0.448084 0.221391 76 153 0
-0.375895 -0.341123 -0.069642 76 153 0
-0.162171 -0.861733 0.020723 76 153 0
-0.146312 0.793775 0.018152 153 0 76
-0.290036 -0.723535 -0.116487 76 153 0
-0.326349 -0.114408 -0.145340 76 153 0
-0.010781 -0.057999 -0.227526 76 153 0
-0.375860 -0.348575 0.074170 76 153 0
0.040685 0.374090 -0.195782 76 153 0
0.120839 -0.489909 0.229128 76 153 0
0.152852 -0.062310 0.210207 76 153 0
-0.144852 -0.305774 -0.231541 76 153 0
-0.290881 0.469049 -0.031624 76 153 0
0.119306 -0.104128 -0.221611 76 153 0
-0.223311 -0.421233 0.217670 76 153 0
-0.188275 0.288530 0.173412 76 153 0
0.270176 -0.861733 0.060759 76 153 0
-0.041401 0.174985 0.207804 76 153 0
-0.280992 -0.858034 -0.002135 76 153 0
0.351307 -0.146591 0.097829 76 153 0
-0.056482 0.554133 0.179273 76 153 0
-0.363266 -0.174178 -0.024673 76 153 0
0.299645 -0.020149 0.159022 76 153 0
-0.141791 -0.765565 -0.180084 76 153 0
-0.334080 0.064719 -0.044734 76 153 0
0.393346 -0.418278 -0.000916 76 153 0
-0.054395 0.274869 -0.201742 76 153 0
0.314498 0.267497 -0.039654 76 153 0
0.109737 0.536395 0.173373 76 153 0
0.240784 0.149641 -0.170009 76 153 0
-0.152366 0.101562 -0.199620 76 153 0
-0.293631 0.202333 -0.133151 76 153 0
0.217606 0.202748 0.171480 76 153 0
-0.155022 -0.796777 0.169035 76 153 0
-0.351984 -0.573340 -0.003514 76 153 0
0.386242 -0.408298 -0.065055 76 153 0
-0.096136 0.288279 0.194071 76 153 0
-0.155926 0.420523 -0.173554 76 153 0
-0.126745 0.494137 -0.174974 76 153 0
-0.244148 -0.741735 0.149735 76 153 0
0.311668 -0.384979 0.187181 76 153 0
0.293328 -0.716749 -0.118440 76 153 0
-0.166288 -0.378458 -0.232997 76 153 0
-0.283303 0.441119 0.087321 76 153 0
-0.307067 -0.078424 0.160185 76 153 0
-0.264751 -0.845696 -0.098408 76 153 0
-0.190228 -0.239168 0.214508 76 153 0
-0.222275 0.595037 0.135029 76 153 0
-0.092122 0.645155 -0.151970 76 153 0
0.350839 -0.547495 -0.078609 76 153 0
0.219109 -0.744092 -0.161709 76 153 0
-0.055428 -0.688310 -0.206242 76 153 0
0.025861 -0.168412 0.232880 76 153 0
-0.353359 -0.358839 0.148470 76 153 0
-0.255121 -0.105988 0.183807 76 153 0
0.121194 0.879603 0.135198 76 0 153
-0.093558 -0.035597 -0.219869 76 153 0
0.117250 0.762647 0.091541 153 0 76
0.228139 0.623281 -0.130062 76 153 0
0.074067 -0.118847 -0.228308 76 153 0
0.335819 0.051716 0.057792 76 153 0
-0.315194 0.213740 -0.062419 76 153 0
0.221337 -0.727661 0.162032 76 153 0
-0.121841 0.683283 0.082958 153 0 76
-0.114622 -0.524675 0.223999 76 153 0
0.098033 0.657583 0.040527 76 153 0
0.281419 0.531108 0.066408 76 153 0
0.233809 0.308699 0.156980 76 153 0
0.120386 0.983954 0.015472 76 0 153
-0.065504 -0.745197 0.193835 76 153 0
-0.049698 0.983954 0.145599 76 0 153
0.096420 0.685629 -0.115331 153 0 76
-0.219328 -0.609627 0.184316 76 153 0
0.152232 0.983954 -0.075463 76 0 153
-0.015470 0.824801 -0.181537 76 0 153
-0.169695 0.657583 0.030465 76 153 0
0.169310 -0.312016 -0.227880 76 153 0
0.292882 -0.795847 0.045205 76 153 0
0.306979 -0.640830 0.132629 76 153 0
-0.023087 0.150329 0.210232 76 153 0
0.303363 0.351599 0.051232 76 153 0
-0.345266 -0.120638 0.099439 76 153 0
0.333004 -0.366765 0.176375 76 153 0
-0.203007 0.189049 -0.178897 76 153 0
0.363773 -0.165477 -0.030793 76 153 0
0.030666 0.512241 -0.186327 76 153 0
-0.354602 -0.437851 0.143622 76 153 0
-0.134940 0.657583 0.078789 76 153 0
0.331759 -0.647366 -0.033889 76 153 0
-0.139599 0.181816 -0.195983 76 153 0
0.022924 0.847023 0.178830 76 0 153
0.330164 -0.160152 -0.154802 76 153 0
-0.070705 0.421987 0.187260 76 153 0
-0.101273 -0.137814 0.224385 76 153 0
-0.045315 -0.861733 0.111010 76 153 0
-0.167400 0.925038 0.065458 76 0 153
0.039781 0.657583 -0.109411 76 153 0
-0.039765 0.491379 0.185365 76 153 0
0.075322 -0.199347 0.231969 76 153 0
0.319225 0.252512 0.014375 76 153 0
-0.244487 0.369606 0.146094 76 153 0
0.169005 0.159551 -0.191287 76 153 0
-0.188499 0.637772 0.132814 76 153 0
-0.122069 0.925037 0.132777 76 0 153
-0.233557 -0.301988 0.207738 76 153 0
0.352521 -0.459062 -0.142437 76 153 0
0.229326 -0.743521 0.156277 76 153 0
-0.157696 0.002614 -0.206041 76 153 0
-0.318291 0.221520 -0.032333 76 153 0
0.165502 -0.054862 0.207091 76 153 0
-0.306691 0.286212 -0.065841 76 153 0
0.013602 0.901137 -0.182083 76 0 153
0.276380 0.443693 -0.110824 76 153 0
-0.008661 0.819780 -0.149698 153 0 76
-0.131350 0.652231 0.130139 76 153 0
0.053555 0.581150 -0.179921 76 153 0
-0.306516 0.273842 0.075589 76 153 0
-0.334832 0.003210 0.088908 76 153 0
0.160478 -0.042210 -0.209308 76 153 0
-0.018177 0.670001 -0.148443 153 0 76
-0.318894 0.197032 0.046394 76 153 0
-0.313925 -0.371503 -0.186032 76 153 0
-0.359440 -0.280672 -0.113314 76 153 0
-0.114073 -0.486951 -0.232487 76 153 0
0.017856 -0.732815 0.199065 76 153 0
0.157162 0.245460 0.185608 76 153 0
-0.056120 -0.861733 -0.090530 76 153 0
0.340005 -0.599546 -0.062055 76 153 0
-0.258490 0.607133 0.100116 76 153 0
-0.117539 0.814517 0.136253 76 0 153
0.169727 0.823600 -0.067368 76 0 153
-0.099356 -0.468215 -0.237211 76 153 0
0.251344 -0.853681 0.124630 76 153 0
0.382873 -0.369366 0.055768 76 153 0
-0.110330 0.835052 0.097790 153 0 76
0.065511 -0.227915 0.235124 76 153 0
0.129501 0.983954 -0.079841 76 0 153
-0.295413 -0.717323 0.105503 76 153 0
0.280435 0.583264 -0.031890 76 153 0
0.036187 -0.494131 -0.238606 76 153 0
-0.199275 0.321792 -0.168995 76 153 0
-0.060167 -0.216780 0.234658 76 153 0
-0.321164 -0.667803 -0.058238 76 153 0
-0.371719 -0.311721 0.074517 76 153 0
0.297282 -0.313359 0.186807 76 153 0
0.227780 -0.035632 0.188066 76 153 0
-0.284591 -0.350856 0.194304 76 153 0
0.268650 -0.043493 0.174436 76 153 0
0.317679 -0.217927 0.169352 76 153 0
-0.033595 -0.705319 0.202801 76 153 0
-0.010364 0.983954 0.151331 76 0 153
0.150338 -0.068602 -0.213173 76 153 0
-0.365540 -0.390444 -0.130185 76 153 0
-0.342886 -0.417986 0.173935 76 153 0
-0.072056 0.777160 0.129245 153 0 76
0.321182 -0.524064 0.162420 76 153 0
0.386467 -0.423754 -0.042965 76 153 0
0.090365 -0.293563 -0.239145 76 153 0
0.213386 0.014456 -0.190822 76 153 0
0.299787 -0.783119 0.016925 76 153 0
-0.353981 -0.312816 -0.135743 76 153 0
0.205815 0.265802 0.170222 76 153 0
0.171682 0.969982 -0.062649 76 0 153
-0.244360 -0.861733 0.124887 76 153 0
-0.058520 0.940732 -0.172374 76 0 153
0.035119 0.219326 0.204966 76 153 0
0.174692 -0.252978 0.220292 76 153 0
-0.377612 -0.283106 -0.007638 76 153 0
0.342244 -0.479012 0.152301 76 153 0
-0.358397 -0.504824 0.082881 76 153 0
-0.176610 -0.861733 0.149793 76 153 0
-0.144061 0.873693 0.107325 76 0 153
-0.036155 -0.335827 0.244322 76 153 0
0.308442 0.137772 0.119456 76 153 0
0.045793 0.286855 0.199771 76 153 0
-0.144461 0.781379 -0.082257 76 0 153
0.345051 -0.029089 0.055865 76 153 0
-0.237240 -0.530664 0.193125 76 153 0
-0.297329 0.411485 -0.031229 76 153 0
-0.274839 -0.851108 0.059996 76 153 0
0.364456 -0.154865 -0.016654 76 153 0
0.158397 -0.338164 0.229845 76 153 0
0.297166 0.468359 -0.001786 76 153 0
-0.144038 -0.051885 0.210643 76 153 0
0.323692 0.178123 -0.045251 76 153 0
-0.064633 -0.476162 0.237741 76 153 0
-0.169732 0.809647 0.059828 76 0 153
0.100684 0.811448 0.110030 153 0 76
0.005475 0.809178 0.181127 76 0 153
-0.020734 0.657583 -0.114844 76 153 0
-0.042349 -0.861733 -0.148723 76 153 0
0.104911 0.110343 0.206194 76 153 0
-0.339150 -0.245908 0.150264 76 153 0
0.143455 -0.861733 -0.056229 76 153 0
-0.299862 0.108601 0.143064 76 153 0
0.095790 -0.736616 -0.194153 76 153 0
0.204531 0.566706 0.145310 76 153 0
0.041346 0.259676 -0.203894 76 153 0
-0.136261 -0.498287 0.224420 76 153 0
0.234966 -0.412189 -0.218829 76 153 0
0.234958 -0.113482 -0.194183 76 153 0
-0.260461 0.571563 0.104915 76 153 0
0.043195 0.657583 0.020612 76 153 0
0.197893 -0.189063 0.209139 76 153 0
-0.115873 0.690614 -0.092776 153 0 76
-0.078599 -0.503855 -0.233709 76 153 0
-0.317294 0.199574 -0.058427 76 153 0
-0.091861 0.682129 0.115047 153 0 76
-0.040451 -0.106273 -0.229866 76 153 0
0.244228 0.104312 -0.172644 76 153 0
-0.233585 -0.220790 -0.202912 76 153 0
-0.310809 -0.710692 0.053417 76 153 0
-0.298967 0.428933 -0.004057 76 153 0
-0.293547 0.235815 0.121688 76 153 0
-0.002228 -0.109359 0.229467 76 153 0
0.337431 -0.215485 0.151161 76 153 0
-0.163825 0.969670 0.074089 76 0 153
-0.001268 -0.017609 0.222978 76 153 0
0.024813 0.983954 0.089190 76 0 153
0.300194 -0.774316 -0.032577 76 153 0
-0.165364 -0.770974 0.170887 76 153 0
-0.283371 -0.402642 -0.201113 76 153 0
-0.061574 0.758346 0.133931 153 0 76
0.181948 0.966555 0.013444 76 0 153
-0.090412 -0.369370 -0.244374 76 153 0
0.247139 -0.620061 0.173557 76 153 0
0.374257 -0.429904 -0.108846 76 153 0
-0.321200 -0.287988 0.173263 76 153 0
-0.233891 -0.233789 0.201877 76 153 0
-0.192259 0.208615 -0.180689 76 153 0
0.242695 -0.810396 0.137229 76 153 0
-0.058391 0.611328 -0.176657 76 153 0
0.139454 -0.180423 -0.223577 76 153 0
0.299683 0.394509 -0.044993 76 153 0
-0.145064 -0.667131 -0.196342 76 153 0
-0.038841 0.755397 -0.144828 153 0 76
-0.003371 0.119503 0.213150 76 153 0
-0.263312 -0.805959 0.125595 76 153 0
0.035203 0.740638 0.144205 153 0 76
-0.158431 0.817319 0.087110 76 0 153
-0.122365 0.048065 -0.209213 76 153 0
-0.357230 -0.518817 0.065175 76 153 0
0.010990 0.803942 -0.182427 76 0 153
0.040860 0.096892 -0.215487 76 153 0
-0.270395 -0.784444 -0.124455 76 153 0
0.092953 0.079943 -0.211827 76 153 0
-0.201598 -0.147452 0.204280 76 153 0
0.106632 0.206126 0.198697 76 153 0
0.079852 -0.529319 0.227650 76 153 0
0.367891 -0.220527 0.043952 76 153 0
-0.221465 0.657284 0.049918 76 153 0
0.297979 0.306709 -0.098110 76 153 0
-0.320683 -0.049603 -0.140364 76 153 0
-0.024712 0.983954 -0.000105 76 0 153
-0.318431 0.087344 0.104352 76 153 0
0.104454 0.047363 -0.212909 76 153 0
-0.133918 0.483237 0.172382 76 153 0
-0.353723 -0.067494 0.005089 76 153 0
-0.087752 -0.627977 0.210457 76 153 0
-0.189376 0.380570 -0.167447 76 153 0
-0.121083 -0.261414 -0.232641 76 153 0
-0.097643 -0.119599 0.223470 76 153 0
0.041778 -0.362312 -0.248108 76 153 0
0.147132 0.730699 -0.030728 153 0 76
0.287464 0.429572 -0.088130 76 153 0
0.345800 -0.582992 -0.049477 76 153 0
0.371257 -0.205307 -0.007564 76 153 0
0.150738 0.492140 0.167849 76 153 0
0.058815 0.443755 -0.189282 76 153 0
-0.304216 -0.314151 -0.184956 76 153 0
-0.281433 0.408202 -0.103337 76 153 0
-0.086016 0.983954 0.106887 76 0 153
0.328509 0.176196 -0.010285 76 153 0
0.342464 -0.006194 0.056195 76 153 0
-0.029556 -0.861733 0.028837 76 153 0
0.176216 -0.793532 -0.166652 76 153 0
0.195067 0.310092 0.170187 76 153 0
0.301558 -0.676362 0.122703 76 153 0
-0.159773 -0.458082 -0.228848 76 153 0
-0.164393 -0.794362 -0.169020 76 153 0
-0.031056 -0.861733 0.124202 76 153 0
-0.144303 0.751826 -0.034123 153 0 76
0.329567 -0.648108 0.047097 76 153 0
0.099444 -0.644626 -0.208727 76 153 0
-0.014129 -0.768991 0.193331 76 153 0
-0.330506 0.048520 -0.085554 76 153 0
0.144198 -0.203013 0.222361 76 153 0
-0.284654 -0.806769 -0.071668 76 153 0
-0.091550 0.584588 0.172722 76 153 0
-0.320438 0.101453 0.095445 76 153 0
-0.298953 -0.176983 0.172661 76 153 0
-0.138880 0.657583 0.011390 76 153 0
-0.126760 0.330685 -0.187218 76 153 0
-0.362188 -0.210242 0.061272 76 153 0
0.322711 0.150704 0.073820 76 153 0
0.119053 -0.367839 0.239314 76 153 0
-0.233534 -0.239640 -0.204518 76 153 0
-0.121062 0.983954 -0.039389 76 0 153
0.045280 0.854932 -0.177913 76 0 153
0.365287 -0.236691 0.077373 76 153 0
-0.279317 0.523923 -0.073147 76 153 0
-0.334908 -0.541139 -0.126294 76 153 0
0.088327 0.349598 0.190798 76 153 0
-0.283230 0.378674 -0.107499 76 153 0
-0.078599 0.358426 -0.193011 76 153 0
0.305445 -0.623341 0.147661 76 153 0
0.330323 -0.193220 -0.163703 76 153 0
0.151584 0.933685 -0.102517 76 0 153
0.009522 -0.834872 0.183043 76 153 0
-0.143555 0.362481 -0.181390 76 153 0
0.286085 -0.422994 0.197523 76 153 0
-0.366593 -0.244159 0.056434 76 153 0
0.190179 -0.802978 -0.160495 76 153 0
-0.237028 0.101828 0.172519 76 153 0
-0.243674 -0.657191 0.166925 76 153 0
0.298288 -0.526563 0.171717 76 153 0
-0.038548 -0.568284 -0.226571 76 153 0
-0.097332 0.983954 0.049360 76 0 153
0.288396 -0.833142 -0.010482 76 153 0
0.180078 0.896251 -0.029672 76 0 153
-0.214838 0.119184 -0.180714 76 153 0
0.079825 0.781379 0.138170 76 0 153
0.172153 0.622143 0.149262 76 153 0
-0.322530 0.198469 -0.019591 76 153 0
0.355812 -0.519510 -0.093973 76 153 0
0.260903 -0.313859 0.200118 76 153 0
0.150906 -0.363635 0.233148 76 153 0
0.150326 0.804794 0.002076 153 0 76
-0.005818 0.983954 0.126016 76 0 153
0.393543 -0.399776 -0.002409 76 153 0
0.132212 -0.515418 0.222710 76 153 0
0.161714 0.849832 -0.086714 76 0 153
0.306662 -0.629562 -0.142718 76 153 0
0.266475 0.165399 0.156294 76 153 0
0.201950 0.578658 -0.147216 76 153 0
-0.025613 -0.508886 0.234525 76 153 0
0.362510 -0.162255 0.035643 76 153 0
0.346350 -0.105672 -0.100042 76 153 0
0.035980 0.381870 0.193376 76 153 0
-0.101524 0.895544 -0.150568 76 0 153
-0.148000 0.832161 -0.005146 153 0 76
0.356054 -0.453052 0.135774 76 153 0
0.321492 -0.365310 -0.183201 76 153 0
-0.189551 -0.833913 0.152036 76 153 0
-0.261931 0.543059 0.109572 76 153 0
-0.161484 -0.861733 0.094077 76 153 0
0.162848 0.941152 0.081950 76 0 153
0.176639 0.794421 0.048657 76 0 153
-0.121339 0.804784 0.083615 153 0 76
-0.313546 -0.264762 0.174423 76 153 0
-0.057908 -0.715003 -0.201620 76 153 0
-0.177976 -0.861733 -0.099309 76 153 0
0.175020 0.146025 -0.190768 76 153 0
-0.182825 -0.728190 0.173877 76 153 0
-0.248005 0.478985 0.134599 76 153 0
0.181381 -0.162755 0.211415 76 153 0
0.149119 0.829122 -0.105731 76 0 153
-0.181234 0.269396 0.176776 76 153 0
0.207713 0.640423 0.124428 76 153 0
0.115050 -0.286003 -0.235861 76 153 0
0.307318 -0.547682 0.163509 76 153 0
-0.230450 -0.128139 0.194158 76 153 0
-0.153681 0.168117 -0.194048 76 153 0
0.148782 -0.850045 -0.163854 76 153 0
0.209852 0.053596 -0.188740 76 153 0
-0.093905 0.862012 -0.156413 76 0 153
0.101220 -0.241770 0.232167 76 153 0
-0.121410 0.983954 0.050885 76 0 153
-0.310543 0.014441 0.144383 76 153 0
0.129200 -0.803228 -0.176774 76 153 0
0.021283 -0.860811 -0.180486 76 153 0
-0.160563 0.626855 -0.151616 76 153 0
0.130832 0.806641 0.127537 76 0 153
0.200856 -0.861733 0.130913 76 153 0
-0.282641 -0.413772 0.199671 76 153 0
0.100747 0.983954 -0.085406 76 0 153
-0.075610 -0.558006 0.223197 76 153 0
0.217843 0.556775 0.141399 76 153 0
-0.289139 -0.229432 0.181656 76 153 0
0.059352 -0.861733 -0.025352 76 153 0
-0.062226 0.290844 -0.199717 76 153 0
-0.007274 -0.861733 -0.174127 76 153 0
-0.249334 0.648143 0.040222 76 153 0
0.085522 -0.845553 0.175527 76 153 0
0.271112 0.629805 0.025991 76 153 0
-0.321162 -0.000788 0.123129 76 153 0
0.315831 -0.103779 -0.161747 76 153 0
0.250599 0.509643 0.131665 76 153 0
-0.095246 -0.701259 0.197693 76 153 0
-0.195181 0.649413 0.116134 76 153 0
0.158873 0.781379 -0.047010 76 0 153
0.054059 -0.149786 0.230517 76 153 0
-0.094919 0.808390 0.153609 76 0 153
-0.055012 0.695171 0.136389 153 0 76
0.207966 -0.338001 -0.220254 76 153 0
0.120458 0.983954 0.084030 76 0 153
0.116083 0.781379 0.107797 76 0 153
-0.117670 -0.076055 0.217362 76 153 0
-0.358093 -0.154420 0.045265 76 153 0
-0.232357 0.412452 -0.149405 76 153 0
-0.106698 -0.303446 -0.237797 76 153 0
-0.123207 0.983954 -0.074176 76 0 153
0.279252 -0.348239 -0.198729 76 153 0
-0.226067 -0.150858 0.197580 76 153 0
0.017302 0.501376 -0.187591 76 153 0
0.352759 -0.140696 -0.093536 76 153 0
0.229998 0.221021 -0.167704 76 153 0
0.266411 -0.831115 -0.109349 76 153 0
0.283083 0.044551 0.160211 76 153 0
-0.005248 -0.861733 0.050556 76 153 0
0.183246 0.916283 -0.005607 76 0 153
0.144748 -0.312598 0.230470 76 153 0
-0.281310 -0.824231 0.061882 76 153 0
-0.376486 -0.463854 0.023284 76 153 0
-0.067731 0.842839 0.166532 76 0 153
0.042260 -0.861733 0.034383 76 153 0
-0.108783 -0.019881 -0.216832 76 153 0
-0.293537 -0.673208 -0.140630 76 153 0
0.096210 0.061319 0.210788 76 153 0
0.319195 -0.229336 -0.171770 76 153 0
0.005047 0.048752 -0.220229 76 153 0
0.308257 0.342122 0.022057 76 153 0
-0.032530 0.657583 0.005864 76 153 0
0.304516 0.400689 -0.003066 76 153 0
-0.292939 -0.777337 0.062602 76 153 0
0.033997 -0.407818 -0.251631 76 153 0
0.050583 -0.387782 -0.249595 76 153 0
0.012079 0.983954 -0.159850 76 0 153
0.248032 -0.441352 -0.209155 76 153 0
0.090247 -0.684264 -0.203292 76 153 0
0.285025 0.022127 0.161427 76 153 0
0.357761 -0.526650 0.063588 76 153 0
0.061783 -0.801140 -0.187417 76 153 0
0.245340 -0.028546 -0.183456 76 153 0
0.011087 0.983954 -0.177405 76 0 153
0.098107 0.657583 0.011301 76 153 0
-0.227136 -0.777065 -0.151793 76 153 0
-0.047075 0.923108 -0.177114 76 0 153
0.106125 -0.751771 0.187719 76 153 0
-0.079916 -0.245371 -0.236563 76 153 0
-0.115742 0.918207 -0.139658 76 0 153
-0.286957 0.423383 0.083605 76 153 0
0.098660 0.781379 0.139034 76 0 153
-0.054442 0.657583 0.113164 76 153 0
0.283793 0.492863 -0.078773 76 153 0
-0.149288 -0.682977 -0.192762 76 153 0
-0.349942 -0.092275 -0.056754 76 153 0
-0.116883 0.983954 0.119213 76 0 153
0.275176 -0.859782 -0.060313 76 153 0
0.341375 -0.128789 -0.118707 76 153 0
-0.104711 -0.593408 0.214205 76 153 0
0.093658 0.796669 0.156327 76 0 153
0.324552 -0.668893 -0.047747 76 153 0
-0.301643 0.346510 0.051271 76 153 0
0.038566 -0.409449 0.249553 76 153 0
-0.058157 0.436160 -0.189651 76 153 0
0.117794 0.810737 0.091219 153 0 76
-0.140955 -0.861733 0.132971 76 153 0
-0.336047 -0.060166 -0.106313 76 153 0
0.057244 -0.672360 -0.208890 76 153 0
0.357402 -0.415275 0.156988 76 153 0
-0.154062 -0.077854 -0.212748 76 153 0
0.028731 0.212735 -0.207696 76 153 0
-0.097595 -0.251076 -0.235016 76 153 0
-0.268430 0.450829 -0.122458 76 153 0
-0.124079 0.781379 0.082776 76 0 153
-0.273774 0.444520 0.109346 76 153 0
0.305486 0.167546 0.118023 76 153 0
-0.259683 0.387565 0.137942 76 153 0
-0.254217 0.007431 0.174561 76 153 0
-0.176565 0.833307 0.037007 76 0 153
-0.142209 -0.861733 -0.122619 76 153 0
0.094273 0.657583 -0.097408 76 153 0
-0.091217 0.983954 0.031593 76 0 153
-0.135467 0.010025 -0.209625 76 153 0
0.220333 -0.213045 0.205117 76 153 0
0.142233 0.983954 0.059360 76 0 153
-0.084063 0.942779 0.159767 76 0 153
0.229077 -0.590054 0.185458 76 153 0
-0.233989 -0.446849 -0.212158 76 153 0
0.158191 0.569665 -0.161797 76 153 0
-0.265517 0.611328 -0.083531 76 153 0
-0.024740 0.983954 -0.047847 76 0 153
-0.082569 0.983954 -0.131438 76 0 153
0.059159 -0.688549 -0.206042 76 153 0
-0.157415 0.379862 0.174342 76 153 0
-0.089877 0.806309 -0.118597 153 0 76
0.173847 0.983954 -0.029958 76 0 153
0.012013 -0.775044 -0.194550 76 153 0
-0.179302 0.863313 -0.018245 76 0 153
0.066668 0.373547 0.191466 76 153 0
0.337217 0.093951 -0.013560 76 153 0
-0.226749 -0.114854 -0.196337 76 153 0
0.208923 -0.761580 0.159871 76 153 0
0.242052 -0.842459 0.130917 76 153 0
0.277242 0.352346 0.133011 76 153 0
-0.324286 0.066291 -0.098303 76 153 0
-0.132339 0.781379 0.117333 76 0 153
-0.156634 -0.861733 -0.029899 76 153 0
0.114494 -0.333164 -0.239336 76 153 0
-0.046252 0.811583 -0.142320 153 0 76
-0.186817 0.451153 -0.162380 76 153 0
0.000629 0.925168 -0.183657 76 0 153
-0.023185 0.794118 -0.147783 153 0 76
0.110397 -0.394669 0.242216 76 153 0
-0.294888 -0.686507 -0.128755 76 153 0
0.352533 -0.502163 0.112466 76 153 0
0.338612 -0.590303 -0.090187 76 153 0
0.028092 -0.251321 0.238694 76 153 0
0.215657 -0.318990 0.214703 76 153 0
0.338319 -0.618915 -0.038081 76 153 0
0.314825 -0.715245 -0.033613 76 153 0
0.275786 0.562540 -0.078046 76 153 0
-0.055664 -0.508172 -0.235549 76 153 0
-0.172221 -0.760227 -0.173013 76 153 0
0.028717 -0.860587 0.178222 76 153 0
-0.108834 -0.861733 0.012124 76 153 0
0.261711 -0.784107 -0.136506 76 153 0
-0.088605 -0.197238 -0.232116 76 153 0
-0.350759 -0.545334 -0.066001 76 153 0
-0.293314 -0.799359 0.017936 76 153 0
-0.025536 -0.175481 -0.235337 76 153 0
-0.375438 -0.423343 -0.104741 76 153 0
-0.041186 0.559269 -0.182511 76 153 0
0.261435 0.332079 0.143234 76 153 0
-0.288759 -0.532542 0.173595 76 153 0
0.304534 -0.343696 0.186469 76 153 0
-0.033229 -0.701974 -0.205376 76 153 0
-0.246101 0.337350 0.148347 76 153 0
0.165189 0.097741 -0.197166 76 153 0
-0.356901 -0.107033 -0.016348 76 153 0
0.331759 0.071671 0.071791 76 153 0
0.004116 -0.698716 -0.207053 76 153 0
0.316965 0.082158 -0.116916 76 153 0
0.003463 -0.839902 -0.184487 76 153 0
-0.105623 0.598941 0.169027 76 153 0
-0.364645 -0.342687 -0.118598 76 153 0
0.055919 0.524250 0.181751 76 153 0
0.213301 0.590900 0.140229 76 153 0
-0.118687 0.622848 0.162069 76 153 0
-0.283173 -0.487403 0.185263 76 153 0
0.147255 0.799825 -0.026386 153 0 76
-0.005100 0.455257 -0.191236 76 153 0
0.252476 -0.758216 0.143757 76 153 0
-0.005762 0.262490 -0.204920 76 153 0
0.048133 0.617685 0.174496 76 153 0
0.321114 0.164405 -0.076407 76 153 0
-0.362603 -0.340885 0.120984 76 153 0
-0.067767 -0.861733 -0.021361 76 153 0
-0.180547 0.814375 -0.008787 76 0 153
-0.024931 0.513975 0.184305 76 153 0
-0.048289 -0.302133 0.241479 76 153 0
0.168260 0.782859 -0.070912 76 0 153
-0.281814 0.558477 -0.025021 76 153 0
0.118998 0.781379 0.122013 76 0 153
0.339809 0.050598 0.028430 76 153 0
-0.237804 -0.194654 -0.199259 76 153 0
0.390130 -0.374528 0.005002 76 153 0
-0.067646 -0.861733 -0.058151 76 153 0
0.085955 0.983954 -0.131830 76 0 153
-0.013665 -0.526792 0.232100 76 153 0
-0.043103 0.908146 0.175873 76 0 153
-0.040814 -0.069095 0.225183 76 153 0
0.301760 -0.693314 0.111236 76 153 0
0.124144 -0.224582 0.227710 76 153 0
-0.088455 0.419470 0.185475 76 153 0
-0.353972 -0.512703 -0.098686 76 153 0
0.016134 -0.758447 -0.197054 76 153 0
0.147512 -0.411788 -0.239359 76 153 0
0.323527 -0.085135 0.147206 76 153 0
0.048367 -0.017670 -0.223358 76 153 0
0.087302 0.657583 -0.072554 76 153 0
-0.114980 -0.861733 0.119121 76 153 0
0.145118 0.781379 0.090154 76 0 153
-0.159732 0.870103 -0.085995 76 0 153
0.308026 0.295858 -0.064877 76 153 0
0.133317 0.647732 0.065190 153 0 76
0.166256 -0.434266 -0.232080 76 153 0
-0.228417 0.440786 -0.148507 76 153 0
-0.358086 -0.365397 -0.140970 76 153 0
0.066490 -0.363028 -0.246820 76 153 0
0.319298 0.094632 0.105666 76 153 0
-0.248131 0.158856 0.163776 76 153 0
-0.160588 0.126533 0.193482 76 153 0
0.169103 -0.483034 -0.223329 76 153 0
-0.309514 0.232138 0.084200 76 153 0
-0.121396 -0.861733 -0.102452 76 153 0
0.061948 0.111949 0.210922 76 153 0
-0.308824 -0.253945 -0.177484 76 153 0
0.090439 0.657583 0.075288 76 153 0
-0.201970 -0.004214 0.192887 76 153 0
-0.072593 0.929483 -0.166544 76 0 153
-0.039706 0.781379 0.170690 76 0 153
-0.168777 0.903311 0.062134 76 0 153
-0.268379 -0.090221 -0.179867 76 153 0
0.103057 0.265406 -0.196946 76 153 0
0.375902 -0.281391 -0.036495 76 153 0
0.200398 0.657583 -0.046639 76 153 0
-0.068199 0.086108 -0.213872 76 153 0
0.102729 0.737412 -0.110481 153 0 76
0.045820 -0.235133 -0.238916 76 153 0
-0.315292 -0.607506 -0.130664 76 153 0
0.138498 -0.861733 -0.002646 76 153 0
0.095313 0.798880 -0.157083 76 0 153
0.369478 -0.184204 -0.003270 76 153 0
-0.041570 0.983954 0.024640 76 0 153
-0.131383 -0.560780 -0.216818 76 153 0
0.102661 -0.323615 -0.239957 76 153 0
0.169000 -0.794964 0.166274 76 153 0
0.372024 -0.346347 0.105315 76 153 0
-0.153549 0.864562 0.094960 76 0 153
0.277545 0.449495 0.104315 76 153 0
0.312599 0.290137 0.032948 76 153 0
-0.379083 -0.362893 0.061774 76 153 0
-0.136311 0.466789 -0.175074 76 153 0
0.010483 0.944088 -0.182494 76 0 153
-0.035877 0.657583 -0.027991 76 153 0
0.277440 0.518789 -0.086647 76 153 0
-0.106698 -0.430232 -0.242582 76 153 0
0.295473 -0.674895 0.138343 76 153 0
0.096521 0.854443 -0.156156 76 0 153
0.129827 -0.003555 -0.212116 76 153 0
0.061260 -0.132504 0.228690 76 153 0
0.252151 0.191454 0.160053 76 153 0
0.055250 0.983954 -0.089141 76 0 153
-0.064956 -0.437132 -0.246087 76 153 0
-0.127892 0.086360 -0.205315 76 153 0
0.265608 0.256556 0.148342 76 153 0
-0.352425 -0.253840 -0.122525 76 153 0
-0.009926 0.277755 -0.203681 76 153 0
-0.125928 0.657583 -0.050293 76 153 0
-0.059759 0.534714 -0.182341 76 153 0
-0.104380 -0.288944 0.234978 76 153 0
0.059960 -0.861733 -0.076757 76 153 0
-0.190796 -0.861733 -0.030321 76 153 0
0.182519 -0.336708 -0.226857 76 153 0
0.024622 0.983954 0.032208 76 0 153
-0.064672 0.781379 -0.149176 76 0 153
-0.315523 -0.463570 -0.178321 76 153 0
-0.133305 0.015027 0.207627 76 153 0
-0.372482 -0.337841 -0.092797 76 153 0
0.313338 0.316609 -0.007016 76 153 0
-0.074529 0.326181 -0.195796 76 153 0
-0.236153 0.655990 -0.004415 76 153 0
-0.381261 -0.402483 0.078643 76 153 0
-0.250836 0.542493 -0.129612 76 153 0
0.155536 0.961959 -0.097367 76 0 153
-0.370339 -0.280703 0.058822 76 153 0
-0.224471 -0.344564 -0.215821 76 153 0
0.135959 -0.288893 0.230329 76 153 0
0.091095 0.710452 0.116880 153 0 76
-0.132303 -0.176534 0.222167 76 153 0
0.042487 -0.775605 0.191312 76 153 0
-0.362900 -0.424549 -0.134229 76 153 0
0.046275 -0.861733 0.148924 76 153 0
-0.055653 -0.861733 0.149986 76 153 0
-0.063633 0.909474 -0.170256 76 0 153
-0.038225 -0.627938 0.215012 76 153 0
-0.296845 0.016920 -0.157885 76 153 0
-0.028608 0.657583 -0.102404 76 153 0
-0.225758 -0.173369 -0.201608 76 153 0
-0.224253 -0.175066 0.200244 76 153 0
-0.223455 -0.252486 -0.208828 76 153 0
-0.372114 -0.258029 -0.028235 76 153 0
0.087388 -0.861733 0.029992 76 153 0
-0.238942 0.503840 0.136213 76 153 0
0.117473 0.657583 -0.067670 76 153 0
0.295920 0.271720 0.111128 76 153 0
-0.260811 -0.552563 0.180867 76 153 0
0.028554 -0.783616 0.190543 76 153 0
0.078889 0.015229 -0.218070 76 153 0
-0.051694 0.983954 -0.067651 76 0 153
-0.109554 -0.855423 0.169182 76 153 0
0.376005 -0.480994 0.011706 76 153 0
-0.129212 0.367637 -0.183993 76 153 0
-0.058284 -0.259597 0.237965 76 153 0
-0.312263 0.180482 0.092433 76 153 0
0.279999 0.573356 0.041539 76 153 0
-0.301840 -0.680875 -0.115620 76 153 0
0.216285 -0.363261 -0.220054 76 153 0
-0.190712 -0.691753 -0.180289 76 153 0
-0.001665 0.035814 -0.221190 76 153 0
-0.364239 -0.211532 -0.048808 76 153 0
0.103978 0.753149 0.107350 153 0 76
-0.074707 -0.861733 0.134949 76 153 0
0.204399 -0.046788 -0.198231 76 153 0
0.012791 -0.533090 -0.233234 76 153 0
-0.130862 -0.429598 0.237005 76 153 0
-0.361179 -0.399391 -0.143289 76 153 0
0.136339 0.063227 -0.205900 76 153 0
0.015602 0.725381 -0.149083 153 0 76
-0.054067 -0.672788 -0.208920 76 153 0
0.357025 -0.128422 -0.050773 76 153 0
0.078582 0.983954 -0.158867 76 0 153
0.072883 0.983954 -0.030994 76 0 153
0.184953 0.459053 -0.163140 76 153 0
0.161035 0.656152 -0.112794 76 153 0
0.051591 -0.312017 -0.244170 76 153 0
-0.143605 0.799033 0.107920 76 0 153
0.163466 -0.084993 0.209931 76 153 0
0.366532 -0.502672 0.042496 76 153 0
0.224485 -0.835377 0.139900 76 153 0
-0.274647 0.497716 0.091926 76 153 0
-0.385464 -0.439740 0.000883 76 153 0
-0.309106 0.254063 0.072606 76 153 0
-0.075158 -0.037948 0.220053 76 153 0
0.358470 -0.378177 0.147201 76 153 0
0.231806 -0.463029 -0.210626 76 153 0
0.110599 0.899405 -0.145354 76 0 153
0.271071 0.102922 -0.162055 76 153 0
0.183547 0.970340 -0.003320 76 0 153
0.097429 -0.861733 0.121216 76 153 0
0.139406 0.799112 -0.118388 76 0 153
-0.178457 0.793752 -0.024664 76 0 153
-0.376858 -0.324045 -0.047914 76 153 0
-0.261468 -0.600057 -0.173446 76 153 0
0.330316 0.086758 -0.072045 76 153 0
-0.269369 -0.845966 0.085059 76 153 0
0.174409 0.065160 -0.197306 76 153 0
0.006131 0.878950 -0.183067 76 0 153
0.196077 -0.803050 0.156427 76 153 0
-0.030099 0.840282 0.144654 153 0 76
0.300216 0.340014 0.081099 76 153 0
0.282124 0.524004 -0.069077 76 153 0
0.047118 0.569601 0.179445 76 153 0
-0.098405 0.785131 0.110027 153 0 76
0.180937 0.437162 0.164226 76 153 0
-0.209154 -0.335656 -0.219155 76 153 0
-0.198268 -0.620393 0.188933 76 153 0
-0.369824 -0.450637 0.098589 76 153 0
0.104884 0.975685 0.147714 76 0 153
0.351671 -0.437094 -0.158718 76 153 0
0.116474 0.545790 -0.173440 76 153 0
-0.015758 0.983954 -0.067167 76 0 153
0.270717 -0.840635 0.090762 76 153 0
0.349500 -0.072472 0.058686 76 153 0
-0.054214 -0.284823 0.240030 76 153 0
-0.350274 -0.038666 -0.008985 76 153 0
0.259532 -0.861733 0.035417 76 153 0
-0.317796 -0.646166 -0.099580 76 153 0
-0.308072 0.132925 -0.118266 76 153 0
-0.221856 -0.469534 -0.211509 76 153 0
-0.043024 0.863145 0.175883 76 0 153
-0.044738 -0.364704 -0.248086 76 153 0
0.240173 -0.345389 -0.211929 76 153 0
0.104926 0.471305 0.179145 76 153 0
-0.331797 0.130877 -0.006243 76 153 0
-0.329324 0.111127 -0.041698 76 153 0
-0.030540 -0.861733 -0.176140 76 153 0
0.166293 0.803730 -0.075658 76 0 153
0.173128 -0.210527 -0.219382 76 153 0
-0.090644 -0.861733 -0.103523 76 153 0
-0.085228 0.152303 0.205168 76 153 0
-0.067186 0.654171 -0.139249 76 153 0
0.180641 -0.767648 -0.170079 76 153 0
-0.011530 0.769918 -0.149319 153 0 76
-0.161632 -0.054635 0.207492 76 153 0
-0.205199 0.282974 0.168203 76 153 0
0.248726 -0.844278 -0.129709 76 153 0
-0.000723 -0.368295 -0.249961 76 153 0
0.348210 -0.086310 -0.082188 76 153 0
-0.171005 0.657583 -0.030376 76 153 0
-0.338801 -0.023907 -0.083676 76 153 0
-0.076913 -0.229971 -0.235782 76 153 0
0.012318 0.968329 0.180226 76 0 153
-0.074110 0.070811 0.212298 76 153 0
-0.344161 -0.545248 0.099266 76 153 0
0.370354 -0.304879 0.096430 76 153 0
0.304571 0.378383 -0.021471 76 153 0
-0.276732 -0.794978 -0.102333 76 153 0
-0.262958 -0.449356 -0.201720 76 153 0
-0.048782 -0.701635 0.202783 76 153 0
-0.151328 0.878504 -0.099880 76 0 153
-0.191978 -0.027185 -0.199357 76 153 0
-0.094489 0.462977 -0.183313 76 153 0
-0.057696 0.833252 -0.172715 76 0 153
-0.234127 -0.498889 -0.202245 76 153 0
-0.343011 -0.036556 0.060348 76 153 0
0.356235 -0.317782 0.135211 76 153 0
-0.243781 0.452729 0.138806 76 153 0
0.113338 -0.861733 0.137785 76 153 0
0.263457 -0.810081 -0.130103 76 153 0
0.298520 0.094451 -0.151065 76 153 0
-0.029209 0.005985 -0.222297 76 153 0
-0.368759 -0.304376 -0.092830 76 153 0
-0.139986 0.693601 0.046801 153 0 76
0.225863 0.341281 0.156967 76 153 0
-0.112313 0.185253 0.198779 76 153 0
-0.038804 -0.491558 -0.238837 76 153 0
0.289197 -0.750537 0.104503 76 153 0
-0.306754 -0.686128 0.098328 76 153 0
-0.326327 -0.623778 -0.093485 76 153 0
-0.337917 0.040936 0.033636 76 153 0
0.172462 -0.197428 0.216499 76 153 0
0.057213 0.582860 0.177366 76 153 0
-0.330297 -0.619166 0.079194 76 153 0
-0.110549 0.328150 -0.190426 76 153 0
-0.375518 -0.260199 0.002180 76 153 0
-0.290882 0.166781 -0.146757 76 153 0
0.238824 -0.861733 0.074701 76 153 0
-0.112899 0.781379 -0.126796 76 0 153
0.277978 0.372364 0.125473 76 153 0
0.023042 0.657583 0.072204 76 153 0
0.355791 -0.089576 -0.027364 76 153 0
0.175980 -0.008944 -0.202735 76 153 0
0.145727 -0.694282 -0.192065 76 153 0
0.109445 0.653172 0.101180 153 0 76
-0.285050 0.255680 0.136484 76 153 0
0.221547 0.382609 0.154970 76 153 0
-0.237354 0.654461 0.032863 76 153 0
-0.309024 -0.413672 0.189332 76 153 0
0.259494 0.587153 0.108267 76 153 0
0.284192 -0.214447 -0.185411 76 153 0
-0.012020 -0.508799 -0.237065 76 153 0
-0.154375 0.153180 -0.195043 76 153 0
0.240677 0.547723 -0.134466 76 153 0
0.187524 -0.710335 0.176408 76 153 0
0.229041 -0.134359 -0.197977 76 153 0
0.178311 0.963877 0.041063 76 0 153
-0.180051 0.327001 -0.174571 76 153 0
0.032827 0.592858 0.178488 76 153 0
0.087071 0.895320 -0.161492 76 0 153
-0.026052 -0.861733 -0.011272 76 153 0
0.308122 0.321786 0.040240 76 153 0
-0.027657 -0.501206 -0.237704 76 153 0
0.166994 0.294758 0.179130 76 153 0
-0.311874 -0.121403 0.162049 76 153 0
-0.054942 -0.066920 -0.226417 76 153 0
-0.187194 -0.762625 0.166361 76 153 0
0.185985 0.008230 0.196719 76 153 0
-0.086300 0.657583 0.030189 76 153 0
0.389016 -0.378046 -0.018460 76 153 0
-0.314749 0.282343 -0.007902 76 153 0
0.241336 -0.047773 0.184427 76 153 0
0.088169 -0.412390 0.245769 76 153 0
-0.003831 0.781379 -0.158733 76 0 153
0.292026 0.301847 -0.113884 76 153 0
0.072434 -0.575456 0.220960 76 153 0
0.037183 0.487334 0.185832 76 153 0
0.076787 -0.861733 0.041030 76 153 0
0.130611 0.922928 -0.129850 76 0 153
0.035718 0.657583 -0.085246 76 153 0
0.039685 -0.828585 0.182939 76 153 0
0.355664 -0.538681 -0.058696 76 153 0
-0.265784 0.187405 -0.155629 76 153 0
-0.159139 0.468108 0.166929 76 153 0
-0.072601 0.657583 0.016103 76 153 0
-0.179406 -0.147893 -0.212188 76 153 0
-0.201515 -0.439843 0.220111 76 153 0
0.299549 0.359001 -0.075981 76 153 0
0.359137 -0.249796 0.108635 76 153 0
-0.181383 -0.301673 -0.223793 76 153 0
-0.201344 -0.484172 -0.214317 76 153 0
-0.014239 0.479512 -0.189175 76 153 0
0.215752 0.492830 0.147676 76 153 0
0.215765 0.153435 0.176268 76 153 0
-0.227796 0.312109 0.157977 76 153 0
-0.065350 0.160444 0.206783 76 153 0
-0.082357 -0.527846 -0.229385 76 153 0
0.242711 -0.271789 0.202830 76 153 0
0.182014 -0.241731 -0.219501 76 153 0
-0.314310 -0.686504 0.072761 76 153 0
0.102262 -0.357136 0.240401 76 153 0
0.197636 -0.646571 -0.187082 76 153 0
0.295102 -0.526612 -0.175098 76 153 0
0.290409 -0.581211 0.163866 76 153 0
0.355466 -0.161955 0.088891 76 153 0
-0.041640 -0.392348 -0.250165 76 153 0
-0.336365 -0.618787 0.033827 76 153 0
0.006482 0.559691 0.181817 76 153 0
0.015187 0.122603 0.212578 76 153 0
-0.206743 -0.778059 0.156712 76 153 0
-0.266623 0.626668 0.055069 76 153 0
0.192981 -0.494569 0.213251 76 153 0
-0.073169 0.768594 -0.130712 153 0 76
0.003530 0.247397 0.204133 76 153 0
-0.195119 0.407249 -0.163224 76 153 0
0.253077 0.628528 -0.103232 76 153 0
0.105105 -0.169613 -0.228540 76 153 0
-0.290792 0.461529 0.036619 76 153 0
0.082626 0.233905 -0.201829 76 153 0
-0.234670 -0.410361 0.216297 76 153 0
-0.139984 0.685870 -0.048844 153 0 76
-0.047604 0.228994 -0.205761 76 153 0
-0.244854 0.047559 -0.176426 76 153 0
0.071686 0.280261 -0.199687 76 153 0
0.133312 -0.311567 -0.234547 76 153 0
-0.307381 -0.576699 0.156543 76 153 0
-0.115153 0.652557 -0.093687 153 0 76
-0.137157 0.112695 -0.201617 76 153 0
-0.055435 -0.721255 0.198850 76 153 0
-0.308083 0.346078 -0.004743 76 153 0
0.287455 0.519815 -0.032117 76 153 0
0.298387 0.367512 0.075592 76 153 0
-0.032365 0.797765 -0.179313 76 0 153
-0.281640 -0.764370 0.108284 76 153 0
-0.368327 -0.225135 -0.029237 76 153 0
0.118027 0.657583 -0.013917 76 153 0
0.286588 0.375504 0.103782 76 153 0
0.095753 0.928056 0.154720 76 0 153
-0.062957 0.347997 0.193474 76 153 0
0.339827 0.073858 0.008668 76 153 0
0.373134 -0.216789 0.000967 76 153 0
-0.126276 0.513288 -0.173626 76 153 0
0.163667 0.540088 -0.162686 76 153 0
0.279520 0.502691 0.084232 76 153 0
-0.017093 0.983954 -0.151927 76 0 153
0.258497 0.647030 0.000669 76 153 0
-0.210975 0.298373 -0.166945 76 153 0
-0.310548 0.295730 0.026487 76 153 0
0.112123 0.499965 -0.177683 76 153 0
-0.299063 -0.753587 0.061187 76 153 0
-0.338923 0.054259 0.014752 76 153 0
-0.063962 -0.801592 -0.186848 76 153 0
0.266700 -0.065602 -0.179232 76 153 0
0.098904 -0.764072 0.186989 76 153 0
-0.367054 -0.371577 0.119072 76 153 0
0.222580 -0.711271 -0.166738 76 153 0
0.007422 0.983954 -0.062591 76 0 153
-0.234483 -0.861733 -0.016088 76 153 0
0.359713 -0.139520 -0.039723 76 153 0
0.312299 0.268474 -0.055533 76 153 0
0.070599 0.881599 -0.168315 76 0 153
0.152585 0.306451 -0.184030 76 153 0
-0.355070 -0.145025 0.060291 76 153 0
0.227488 -0.020391 0.186883 76 153 0
-0.056873 -0.543656 -0.229637 76 153 0
0.325549 -0.038181 0.128806 76 153 0
-0.069937 -0.764740 0.190162 76 153 0
-0.180564 -0.499373 0.215070 76 153 0
-0.136074 -0.359779 0.235195 76 153 0
-0.321039 -0.684929 -0.026667 76 153 0
-0.036698 0.577966 -0.181347 76 153 0
0.161470 -0.861733 -0.057809 76 153 0
0.321612 -0.677619 0.051483 76 153 0
-0.012910 0.542656 0.182708 76 153 0
-0.126889 -0.126625 -0.221460 76 153 0
-0.133431 0.463265 0.174018 76 153 0
0.166444 -0.105446 0.210832 76 153 0
-0.243410 0.650102 -0.064583 76 153 0
-0.288045 0.300040 0.116482 76 153 0
0.250295 -0.397717 0.210832 76 153 0
-0.141192 0.084602 0.200946 76 153 0
-0.124735 -0.058293 -0.216741 76 153 0
-0.355556 -0.090079 -0.012254 76 153 0
0.285083 0.500096 -0.066774 76 153 0
-0.133524 -0.411612 -0.241568 76 153 0
-0.282532 -0.383736 0.197782 76 153 0
0.246291 -0.589476 0.179647 76 153 0
0.206403 -0.823519 -0.151021 76 153 0
0.100726 -0.861733 -0.003308 76 153 0
-0.288372 0.481759 -0.039951 76 153 0
0.060369 -0.197869 -0.235545 76 153 0
-0.340885 -0.080282 -0.100423 76 153 0
-0.083909 0.962876 -0.161857 76 0 153
0.193225 0.655519 0.102730 76 153 0
-0.183938 0.544178 0.153506 76 153 0
-0.277799 -0.279158 -0.192624 76 153 0
0.177008 0.657583 0.077426 76 153 0
0.178981 -0.819961 0.159100 76 153 0
0.088043 -0.688356 0.200845 76 153 0
-0.347032 -0.581489 0.023624 76 153 0
0.097411 -0.478496 -0.236005 76 153 0
0.360114 -0.208589 0.092946 76 153 0
-0.126949 0.052154 0.206028 76 153 0
0.032946 0.180025 -0.209867 76 153 0
0.123763 -0.777486 0.180101 76 153 0
0.157203 0.034835 0.202119 76 153 0
0.190170 0.579538 0.149168 76 153 0
0.298958 0.421604 -0.027632 76 153 0
-0.230376 0.474488 -0.144590 76 153 0
0.104752 0.273821 0.193975 76 153 0
-0.379769 -0.312114 0.013704 76 153 0
-0.319643 -0.691384 0.022987 76 153 0
0.387874 -0.410302 0.052331 76 153 0
-0.316500 -0.224922 -0.171544 76 153 0
-0.066806 0.184075 0.204911 76 153 0
0.150270 -0.037116 0.208800 76 153 0
0.368097 -0.281370 0.093734 76 153 0
0.367113 -0.226273 -0.056731 76 153 0
-0.305172 0.336405 -0.035019 76 153 0
-0.100836 -0.548530 -0.223968 76 153 0
0.105281 0.983954 -0.035735 76 0 153
0.027450 0.646544 0.155223 76 153 0
-0.141861 0.646574 -0.040967 153 0 76
