ply
format ascii 1.0
element vertex 615
property float x
property float y
property float z
property float nx
property float ny
property float nz
property uchar red
property uchar green
property uchar blue
property float opacity
end_header
-0.278134 -0.701095 0.143520 0.654654 0.225297 -0.721574 128 128 128 0.500000
0.373492 -0.297698 -0.068560 0.984142 0.111020 -0.138344 128 128 128 0.500000
-0.238154 -0.861733 -0.128825 0.000000 -1.000000 -0.000000 128 128 128 0.500000
0.136799 0.431254 -0.178239 0.208787 0.074459 -0.975123 128 128 128 0.500000
0.315674 0.265030 0.030777 -0.988902 -0.110979 -0.098777 128 128 128 0.500000
0.188796 -0.049179 -0.202531 0.261020 0.076568 -0.962292 128 128 128 0.500000
-0.167886 0.293828 -0.180393 0.257081 -0.076400 0.963365 128 128 128 0.500000
0.140132 -0.274031 0.228439 0.165852 0.073266 0.983425 128 128 128 0.500000
0.169321 0.969414 0.066323 -0.928356 0.000000 -0.371693 204 0 0 1.000000
0.067916 -0.424789 0.245995 -0.069557 0.158956 -0.984832 128 128 128 0.500000
-0.175598 0.983954 -0.045527 0.000000 1.000000 0.000000 204 0 0 1.000000
0.009034 -0.682550 0.207433 0.011972 -0.158098 0.987351 128 128 128 0.500000
-0.094788 0.421804 0.184317 -0.145005 0.072661 0.986759 128 128 128 0.500000
-0.121745 0.146123 0.199955 -0.181598 0.073655 0.980611 128 128 128 0.500000
-0.255575 0.032493 0.171982 -0.358012 0.081560 0.930148 128 128 128 0.500000
-0.362230 -0.198199 -0.052808 0.988056 -0.111066 0.106814 128 128 128 0.500000
-0.283601 -0.341010 0.193814 -0.362712 0.081872 0.928298 128 128 128 0.500000
-0.309547 0.248832 0.073666 -0.968311 0.110568 0.223939 128 128 128 0.500000
-0.210759 -0.861733 -0.034471 0.000000 1.000000 0.000000 128 128 128 0.500000
0.220950 0.418250 -0.154198 0.343590 0.080699 -0.935646 128 128 128 0.500000
0.112183 0.715961 0.096379 0.751807 -0.000000 0.659383 128 128 128 0.500000
-0.103016 -0.861733 -0.038745 0.000000 1.000000 0.000000 128 128 128 0.500000
0.110595 -0.861733 0.000853 0.000000 -1.000000 -0.000000 128 128 128 0.500000
0.220116 -0.257459 0.208676 -0.267360 -0.076799 -0.960531 128 128 128 0.500000
0.115070 0.886040 0.139897 0.628733 -0.000000 0.777622 204 0 0 1.000000
-0.026493 0.898832 0.178060 0.152506 0.000000 -0.988303 204 0 0 1.000000
-0.000363 0.307689 0.199879 0.002586 0.070947 0.997477 128 128 128 0.500000
0.349520 -0.564970 0.053418 0.962225 -0.243509 0.121764 128 128 128 0.500000
-0.133680 -0.693571 -0.194003 -0.197708 -0.165139 -0.966251 128 128 128 0.500000
-0.299721 -0.744951 -0.074612 0.937748 0.243018 0.248136 128 128 128 0.500000
-0.029636 -0.344420 0.245173 -0.049416 0.071257 0.996233 128 128 128 0.500000
0.104262 0.893921 -0.130528 0.000000 1.000000 0.000000 128 128 128 0.500000
0.275055 -0.593989 -0.169847 0.412271 -0.190873 -0.890842 128 128 128 0.500000
0.297446 -0.598535 0.157292 -0.594799 0.217897 -0.773779 128 128 128 0.500000
-0.104087 0.276634 -0.195489 0.160625 -0.073044 0.984309 128 128 128 0.500000
-0.066297 0.657583 0.064196 0.000000 -1.000000 -0.000000 128 128 128 0.500000
0.008866 -0.166147 -0.235370 0.019461 0.070993 -0.997287 128 128 128 0.500000
-0.079026 -0.605167 0.215138 -0.115919 -0.160560 0.980196 128 128 128 0.500000
-0.284688 0.540366 -0.018473 0.989372 -0.110866 0.094080 128 128 128 0.500000
0.204408 -0.861733 -0.116878 0.000000 -1.000000 -0.000000 128 128 128 0.500000
0.242016 -0.236440 0.200090 -0.299329 -0.078366 -0.950926 128 128 128 0.500000
-0.144984 0.692266 -0.020254 0.991441 -0.000000 0.130553 128 128 128 0.500000
-0.223929 0.103434 -0.178915 -0.315718 0.079189 -0.945543 128 128 128 0.500000
-0.264877 0.338854 -0.142189 -0.627168 0.099958 -0.772443 128 128 128 0.500000
0.348566 -0.043877 0.041649 -0.982863 -0.110924 -0.147230 128 128 128 0.500000
0.007975 0.983954 -0.091255 0.000000 1.000000 0.000000 204 0 0 1.000000
0.240382 -0.295470 0.205626 0.291105 0.077930 0.953512 128 128 128 0.500000
-0.276798 -0.565352 0.171980 -0.465026 -0.199179 0.862600 128 128 128 0.500000
0.202256 -0.369704 0.222233 0.236121 0.075587 0.968779 128 128 128 0.500000
0.132083 -0.408810 0.240036 -0.147223 -0.072750 -0.986424 128 128 128 0.500000
0.283840 -0.850252 0.010574 -0.966842 0.243215 -0.077868 128 128 128 0.500000
-0.038577 -0.168086 0.232304 -0.059666 0.071309 0.995668 128 128 128 0.500000
-0.249545 -0.221094 0.195423 -0.331071 0.080073 0.940202 128 128 128 0.500000
0.088591 -0.745244 0.191521 -0.138016 0.161550 -0.977166 128 128 128 0.500000
0.129415 0.796131 -0.130915 -0.702636 -0.000000 0.711549 204 0 0 1.000000
-0.112666 0.351673 -0.188269 -0.178232 0.073568 -0.981234 128 128 128 0.500000
0.177389 0.240856 -0.182666 0.264057 0.076663 -0.961455 128 128 128 0.500000
-0.117585 0.847652 -0.088394 0.999892 0.000000 -0.014709 128 128 128 0.500000
0.242809 0.123757 0.169468 0.343954 0.080768 0.935506 128 128 128 0.500000
0.265474 -0.056042 0.176822 -0.352815 -0.081242 -0.932160 128 128 128 0.500000
-0.079732 0.726865 -0.124733 -0.547145 0.000000 -0.837038 128 128 128 0.500000
0.145054 0.221400 0.190401 0.214994 0.074711 0.973753 128 128 128 0.500000
-0.057100 0.844995 0.134392 -0.395121 -0.000000 0.918629 128 128 128 0.500000
0.318436 -0.423290 0.184300 -0.505581 0.205815 -0.837871 128 128 128 0.500000
0.309707 -0.385284 0.188050 -0.423515 -0.086605 -0.901740 128 128 128 0.500000
0.006989 0.292391 -0.202832 -0.005179 -0.070988 0.997464 128 128 128 0.500000
0.087659 -0.861733 0.147844 0.000000 1.000000 0.000000 128 128 128 0.500000
0.259756 -0.410884 0.208687 0.302672 0.078568 0.949851 128 128 128 0.500000
0.342346 -0.531991 -0.119765 0.856028 -0.243282 -0.456103 128 128 128 0.500000
-0.162603 0.891596 -0.079063 0.902694 -0.000000 0.430282 204 0 0 1.000000
0.317590 -0.279406 0.175004 -0.505570 -0.092284 -0.857836 128 128 128 0.500000
-0.254393 0.497231 -0.132221 -0.667611 0.102196 -0.737463 128 128 128 0.500000
-0.211764 -0.634099 -0.184304 -0.299935 -0.174567 -0.937851 128 128 128 0.500000
0.294407 0.422505 -0.061437 0.968257 0.110967 -0.223976 128 128 128 0.500000
0.304180 0.291660 0.085447 -0.954097 -0.110905 -0.278207 128 128 128 0.500000
0.227478 0.228588 -0.167933 0.336709 0.080334 -0.938175 128 128 128 0.500000
0.091353 0.893921 0.140998 0.000000 -1.000000 -0.000000 128 128 128 0.500000
0.097534 -0.861733 0.123752 0.000000 1.000000 0.000000 128 128 128 0.500000
-0.379972 -0.431273 0.058673 -0.951041 -0.244150 0.189502 128 128 128 0.500000
-0.157184 -0.832545 -0.164145 -0.250450 -0.169618 -0.953155 128 128 128 0.500000
-0.332263 -0.064361 0.114628 -0.867930 0.110689 0.484196 128 128 128 0.500000
-0.074529 0.436870 -0.187785 -0.127477 0.072351 -0.989199 128 128 128 0.500000
-0.139599 -0.285514 -0.231000 0.167233 -0.073306 0.983188 128 128 128 0.500000
0.063013 0.760489 -0.134913 0.419468 0.000000 -0.907770 128 128 128 0.500000
0.288621 0.017216 -0.162360 -0.566070 -0.096221 0.818722 128 128 128 0.500000
0.126179 0.484917 -0.176195 -0.196766 -0.074101 0.977646 128 128 128 0.500000
-0.086400 0.657583 -0.012413 0.000000 1.000000 0.000000 128 128 128 0.500000
-0.322145 0.195797 -0.024765 -0.991439 0.110746 -0.069166 128 128 128 0.500000
-0.145412 0.983954 -0.063170 0.000000 1.000000 0.000000 204 0 0 1.000000
-0.223048 -0.246812 -0.208489 -0.276389 0.077178 -0.957942 128 128 128 0.500000
0.118841 0.881166 0.087703 -0.798564 0.000000 -0.601909 128 128 128 0.500000
0.278348 -0.840925 0.069996 0.929502 -0.242667 0.277739 128 128 128 0.500000
-0.227221 -0.019608 0.186124 0.319768 -0.079392 -0.944164 128 128 128 0.500000
-0.137963 -0.775336 -0.179360 0.210061 0.165960 0.963500 128 128 128 0.500000
0.050240 -0.632652 0.213899 0.067678 -0.158860 0.984979 128 128 128 0.500000
0.305363 0.341745 -0.046381 -0.981498 -0.111035 0.155992 128 128 128 0.500000
0.047618 0.666962 -0.141290 -0.314516 -0.000000 0.949252 128 128 128 0.500000
0.021367 -0.861733 -0.096415 0.000000 1.000000 0.000000 128 128 128 0.500000
-0.217558 0.620433 0.132716 0.419392 -0.351006 -0.837201 128 128 128 0.500000
0.022481 0.893921 0.147905 0.000000 1.000000 0.000000 128 128 128 0.500000
-0.319192 -0.130121 -0.161735 -0.687661 0.103232 -0.718656 128 128 128 0.500000
0.136158 0.121907 0.199512 0.189026 0.073887 0.979188 128 128 128 0.500000
0.040010 -0.706797 -0.204438 -0.059238 0.158784 0.985535 128 128 128 0.500000
0.072699 -0.472127 -0.239782 0.080053 -0.159324 -0.983975 128 128 128 0.500000
-0.066683 -0.337717 -0.244713 0.073536 -0.071425 0.994732 128 128 128 0.500000
-0.269355 0.401053 -0.134553 0.707455 -0.104205 0.699034 128 128 128 0.500000
0.228196 -0.540793 -0.197125 0.290978 -0.173573 -0.940853 128 128 128 0.500000
-0.179131 0.781379 0.001559 0.000000 -1.000000 -0.000000 204 0 0 1.000000
0.013303 -0.861733 -0.045815 0.000000 1.000000 0.000000 128 128 128 0.500000
-0.113475 0.830576 0.139371 -0.632431 -0.000000 0.774617 204 0 0 1.000000
0.277586 -0.115259 -0.179185 0.402964 0.084859 -0.911273 128 128 128 0.500000
-0.017989 -0.765769 -0.195730 0.025280 0.158342 0.987061 128 128 128 0.500000
-0.347875 -0.136912 -0.099850 -0.955648 0.110965 -0.272808 128 128 128 0.500000
-0.056400 -0.861733 0.134863 0.000000 1.000000 0.000000 128 128 128 0.500000
0.055629 0.983954 0.136378 0.000000 1.000000 0.000000 204 0 0 1.000000
-0.363293 -0.265629 -0.099680 0.965987 -0.110504 0.233790 128 128 128 0.500000
-0.187889 0.324042 0.170696 0.284407 -0.077543 -0.955563 128 128 128 0.500000
0.202236 -0.552333 0.200564 -0.256435 0.170057 -0.951484 128 128 128 0.500000
0.245447 0.592157 0.126339 0.731183 0.105405 0.673989 128 128 128 0.500000
-0.155550 0.803452 -0.094378 -0.859058 0.000000 -0.511878 204 0 0 1.000000
-0.131586 0.926706 -0.125609 0.729084 -0.000000 0.684424 204 0 0 1.000000
0.050639 0.983954 0.084390 0.000000 1.000000 0.000000 204 0 0 1.000000
0.064573 -0.452548 0.241845 -0.068299 0.158888 -0.984931 128 128 128 0.500000
-0.292385 0.402759 -0.076141 -0.956167 0.110536 -0.271158 128 128 128 0.500000
-0.067810 -0.861733 0.041489 0.000000 -1.000000 -0.000000 128 128 128 0.500000
-0.128371 -0.470876 -0.232536 0.172626 0.163504 0.971322 128 128 128 0.500000
0.140693 0.797869 0.114686 0.769835 -0.000000 0.638243 204 0 0 1.000000
-0.116975 -0.490391 0.229341 -0.158784 -0.162543 0.973842 128 128 128 0.500000
0.303800 0.271467 0.092177 0.937963 0.111281 0.328394 128 128 128 0.500000
0.281850 0.558145 -0.042345 -0.976964 -0.111226 0.182127 128 128 128 0.500000
0.055441 0.781379 0.170215 0.000000 1.000000 0.000000 204 0 0 1.000000
0.134720 0.164494 -0.198614 0.196216 0.074103 -0.977757 128 128 128 0.500000
-0.102631 -0.706013 0.195659 0.150944 0.162192 -0.975146 128 128 128 0.500000
0.369034 -0.273078 0.079619 -0.963095 -0.110846 -0.245279 128 128 128 0.500000
0.093141 0.483376 -0.182460 -0.140392 -0.072532 0.987436 128 128 128 0.500000
0.012659 0.093856 -0.216742 0.019633 0.071029 -0.997281 128 128 128 0.500000
0.169729 0.904195 0.065340 0.930523 -0.000000 0.366234 204 0 0 1.000000
-0.104446 0.882279 -0.148326 -0.582561 0.000000 -0.812787 204 0 0 1.000000
0.145630 -0.319956 0.230857 -0.169555 -0.073375 -0.982785 128 128 128 0.500000
-0.016789 -0.119988 0.229686 0.033028 -0.071089 -0.996923 128 128 128 0.500000
-0.311328 -0.450150 0.180850 0.526176 0.208387 -0.824447 128 128 128 0.500000
0.297715 -0.445594 0.188597 0.395972 -0.188592 0.898688 128 128 128 0.500000
0.113364 -0.143658 -0.225679 0.153538 0.072833 -0.985455 128 128 128 0.500000
-0.031507 0.864256 -0.179426 0.179999 -0.000000 0.983667 204 0 0 1.000000
0.118758 -0.138489 0.222262 -0.148625 -0.072754 -0.986214 128 128 128 0.500000
-0.278105 -0.105823 0.175098 0.454742 -0.088690 -0.886196 128 128 128 0.500000
-0.202005 -0.001438 0.192659 -0.282492 0.077501 0.956134 128 128 128 0.500000
-0.334182 0.014244 0.084537 0.960932 -0.110532 -0.253756 128 128 128 0.500000
0.011493 -0.211344 0.236462 0.005183 0.071002 0.997463 128 128 128 0.500000
-0.097358 0.831540 -0.111208 -0.516918 -0.000000 0.856035 128 128 128 0.500000
-0.178346 -0.384571 -0.231130 0.208380 -0.074441 0.975211 128 128 128 0.500000
0.008851 0.550395 -0.184417 -0.002111 -0.071006 0.997474 128 128 128 0.500000
-0.327030 0.138406 -0.036096 -0.989472 0.110808 -0.093099 128 128 128 0.500000
0.107458 -0.770489 -0.186341 -0.168523 0.163181 0.972097 128 128 128 0.500000
-0.051965 0.856919 0.173063 -0.291794 -0.000000 0.956481 204 0 0 1.000000
0.101914 -0.818913 -0.179209 -0.171048 0.163400 0.971619 128 128 128 0.500000
-0.199305 0.156548 -0.182908 0.291216 -0.077874 0.953482 128 128 128 0.500000
-0.203906 0.530194 -0.149843 -0.348504 0.081080 -0.933794 128 128 128 0.500000
-0.355505 -0.087957 -0.010853 0.993815 -0.110667 0.009245 128 128 128 0.500000
0.125878 0.344601 0.184739 -0.196028 -0.074141 -0.977792 128 128 128 0.500000
-0.255909 0.646654 0.007302 -0.586623 0.809625 0.019499 128 128 128 0.500000
-0.176802 0.835909 -0.037235 -0.979904 0.000000 -0.199471 204 0 0 1.000000
0.205809 0.266666 -0.172177 -0.305937 -0.078697 0.948794 128 128 128 0.500000
-0.034806 0.872397 0.142912 -0.242315 -0.000000 0.970198 128 128 128 0.500000
0.301744 -0.700345 -0.108747 -0.871035 0.243772 0.426466 128 128 128 0.500000
-0.335686 -0.192265 -0.145210 0.808392 -0.109117 0.578443 128 128 128 0.500000
0.244839 -0.712768 0.156367 -0.390137 0.187140 -0.901539 128 128 128 0.500000
-0.163929 -0.690240 -0.187615 -0.241905 -0.168778 -0.955508 128 128 128 0.500000
0.145767 0.833801 -0.110099 -0.798366 -0.000000 0.602173 204 0 0 1.000000
0.333566 0.061868 -0.068362 -0.977142 -0.110815 0.181420 128 128 128 0.500000
-0.068806 0.347488 0.192862 -0.105626 0.071924 0.991802 128 128 128 0.500000
0.177476 0.781379 -0.025620 0.000000 -1.000000 -0.000000 204 0 0 1.000000
-0.136988 -0.034454 0.210649 -0.194211 0.074067 0.978159 128 128 128 0.500000
0.105757 -0.190082 -0.229949 0.143098 0.072636 -0.987040 128 128 128 0.500000
-0.306523 -0.412975 0.190547 0.445138 0.195980 -0.873753 128 128 128 0.500000
-0.264120 -0.861733 0.011446 0.000000 1.000000 0.000000 128 128 128 0.500000
-0.206297 -0.815559 0.149756 0.327492 0.177871 -0.927960 128 128 128 0.500000
0.123845 0.791932 -0.083207 0.830827 0.000000 -0.556530 128 128 128 0.500000
0.354654 -0.105855 0.047712 -0.980308 -0.111008 -0.163319 128 128 128 0.500000
0.059473 0.080943 0.213440 0.080752 0.071492 0.994167 128 128 128 0.500000
0.295544 -0.369115 0.192642 -0.360829 -0.081916 -0.929028 128 128 128 0.500000
-0.377759 -0.367615 0.075812 -0.965136 0.110991 0.237050 128 128 128 0.500000
0.243780 -0.078702 -0.188218 -0.332451 -0.080133 0.939710 128 128 128 0.500000
-0.275517 -0.844439 -0.069539 0.931474 0.242870 0.270870 128 128 128 0.500000
0.057170 0.376759 0.192287 0.091208 0.071625 0.993253 128 128 128 0.500000
0.012342 -0.264175 -0.242213 0.025348 0.071038 -0.997151 128 128 128 0.500000
-0.246954 -0.266866 -0.202197 -0.304954 0.078670 -0.949112 128 128 128 0.500000
0.088331 0.657583 0.021787 0.000000 -1.000000 -0.000000 128 128 128 0.500000
-0.106958 -0.266621 -0.235103 0.125712 -0.072229 0.989434 128 128 128 0.500000
0.307632 0.197765 0.104142 0.904885 0.111168 0.410883 128 128 128 0.500000
-0.328214 -0.594915 -0.107623 0.910189 0.244245 0.334514 128 128 128 0.500000
-0.012629 0.445446 -0.191657 -0.027389 0.071056 -0.997096 128 128 128 0.500000
0.042129 0.657583 -0.087986 0.000000 1.000000 0.000000 128 128 128 0.500000
-0.370634 -0.212653 -0.000853 0.993520 -0.110397 -0.027044 128 128 128 0.500000
-0.093823 -0.237965 -0.234485 -0.111049 0.072016 -0.991202 128 128 128 0.500000
-0.038828 0.893921 0.160298 0.000000 -1.000000 -0.000000 128 128 128 0.500000
-0.276149 -0.719864 -0.142541 -0.621061 -0.221118 -0.751924 128 128 128 0.500000
0.360298 -0.401479 -0.151522 0.866341 0.110758 -0.487017 128 128 128 0.500000
0.326057 -0.671715 0.028930 -0.966568 0.243265 -0.081048 128 128 128 0.500000
-0.066293 0.657583 -0.027943 0.000000 -1.000000 -0.000000 128 128 128 0.500000
-0.214352 -0.858636 0.138487 0.380287 0.186029 -0.905966 128 128 128 0.500000
0.282103 0.068016 0.158489 0.482149 0.090583 0.871394 128 128 128 0.500000
-0.088036 0.781379 0.116660 0.000000 -1.000000 -0.000000 204 0 0 1.000000
0.362045 -0.296239 0.114982 0.899023 0.111100 0.423573 128 128 128 0.500000
0.112393 -0.552945 0.220072 -0.142270 0.161642 -0.976541 128 128 128 0.500000
0.139177 -0.760680 -0.182091 -0.219228 0.166711 0.961325 128 128 128 0.500000
0.342499 -0.041208 0.085480 0.960128 0.110549 0.256776 128 128 128 0.500000
0.071377 -0.262203 -0.238981 0.100139 0.071799 -0.992380 128 128 128 0.500000
0.194166 -0.462186 -0.220710 -0.229732 0.167779 0.958683 128 128 128 0.500000
0.368956 -0.215904 -0.033984 0.992165 0.111057 -0.057231 128 128 128 0.500000
-0.119870 0.983954 0.013993 0.000000 1.000000 0.000000 204 0 0 1.000000
-0.062231 0.781379 -0.143505 0.000000 -1.000000 -0.000000 204 0 0 1.000000
0.083487 0.704709 0.121575 0.557613 -0.000000 0.830101 128 128 128 0.500000
0.012042 -0.253145 0.239414 0.004840 0.071006 0.997464 128 128 128 0.500000
0.248477 -0.568375 -0.184921 0.321663 -0.177134 -0.930138 128 128 128 0.500000
-0.317392 0.188446 -0.067070 0.973424 -0.110880 0.200378 128 128 128 0.500000
-0.046388 0.782313 0.175373 0.260174 0.000000 -0.965562 204 0 0 1.000000
-0.079299 -0.861733 0.102509 0.000000 -1.000000 -0.000000 128 128 128 0.500000
-0.108212 0.657583 -0.096801 0.000000 -1.000000 -0.000000 128 128 128 0.500000
-0.190770 0.261917 -0.176879 0.291377 -0.077890 0.953432 128 128 128 0.500000
0.041234 0.532742 0.182454 0.076785 0.071444 0.994485 128 128 128 0.500000
0.154863 0.627324 0.151455 -0.235556 -0.462813 -0.854586 128 128 128 0.500000
0.137331 0.893921 0.092508 0.000000 1.000000 0.000000 128 128 128 0.500000
-0.186474 -0.678327 0.181763 0.271480 0.171504 -0.947040 128 128 128 0.500000
-0.341689 -0.042851 -0.077728 -0.974560 0.110705 -0.194878 128 128 128 0.500000
-0.129169 0.425788 -0.179644 0.214349 -0.074720 0.973895 128 128 128 0.500000
0.343827 -0.463226 -0.160729 -0.664045 0.226737 0.712485 128 128 128 0.500000
-0.112335 -0.649436 0.203391 -0.163021 -0.162913 0.973079 128 128 128 0.500000
-0.244843 -0.222513 -0.199186 0.307035 -0.078775 0.948432 128 128 128 0.500000
-0.332843 -0.576299 -0.108505 -0.912037 -0.244306 -0.329398 128 128 128 0.500000
-0.097999 0.893921 -0.127624 0.000000 1.000000 0.000000 128 128 128 0.500000
0.321452 -0.067734 0.147205 -0.724991 -0.105265 -0.680667 128 128 128 0.500000
-0.351876 -0.084651 -0.035628 -0.991156 0.110985 -0.072746 128 128 128 0.500000
0.051819 0.943095 0.174068 -0.278047 0.000000 -0.960568 204 0 0 1.000000
-0.158927 0.893921 0.032762 0.000000 -1.000000 -0.000000 128 128 128 0.500000
0.168598 0.657211 0.101355 0.035521 0.993272 0.110220 128 128 128 0.500000
-0.359195 -0.541854 0.006506 0.969066 0.242836 -0.044061 128 128 128 0.500000
-0.094593 -0.194429 -0.231249 0.113930 -0.072052 0.990873 128 128 128 0.500000
-0.164254 -0.711295 -0.183794 0.245390 0.169097 0.954563 128 128 128 0.500000
-0.143247 0.799491 -0.033445 0.975689 -0.000000 0.219159 128 128 128 0.500000
0.304918 0.314169 -0.073036 -0.963347 -0.110731 0.244337 128 128 128 0.500000
0.157584 0.893921 0.048757 0.000000 -1.000000 -0.000000 128 128 128 0.500000
-0.243824 -0.833968 -0.132951 0.530871 0.209030 0.821268 128 128 128 0.500000
-0.154000 0.020707 -0.205375 -0.212024 0.074594 -0.974413 128 128 128 0.500000
0.139572 0.657583 0.020165 0.000000 -1.000000 -0.000000 128 128 128 0.500000
-0.059977 -0.058413 -0.225243 -0.077894 0.071463 -0.994397 128 128 128 0.500000
0.174095 0.635627 -0.142563 -0.238624 -0.609443 0.756068 128 128 128 0.500000
-0.179106 0.908841 0.017708 0.994650 0.000000 -0.103306 204 0 0 1.000000
0.150091 0.781379 0.021403 0.000000 -1.000000 -0.000000 204 0 0 1.000000
0.100164 0.983954 -0.018288 0.000000 1.000000 0.000000 204 0 0 1.000000
0.004056 0.983954 -0.128991 0.000000 -1.000000 -0.000000 204 0 0 1.000000
-0.026276 0.722545 0.144035 0.185724 0.000000 -0.982602 128 128 128 0.500000
-0.307796 0.122414 0.119933 -0.816718 0.109256 0.566600 128 128 128 0.500000
-0.044470 0.797239 -0.141649 -0.308492 0.000000 -0.951227 128 128 128 0.500000
0.028750 -0.120904 0.229395 0.028357 0.071093 0.997066 128 128 128 0.500000
0.198867 0.200259 0.178134 -0.292493 -0.077938 -0.953086 128 128 128 0.500000
-0.229744 0.651455 0.089685 0.335135 -0.906991 -0.255053 128 128 128 0.500000
-0.096666 -0.459800 -0.238879 -0.131503 -0.161327 -0.978101 128 128 128 0.500000
-0.082446 -0.072994 -0.223807 -0.104598 0.071897 -0.991912 128 128 128 0.500000
0.262061 -0.730780 -0.147312 0.539593 -0.210306 -0.815237 128 128 128 0.500000
-0.368729 -0.472832 0.065151 -0.948057 -0.243882 0.204230 128 128 128 0.500000
0.111950 0.983954 0.022214 0.000000 1.000000 0.000000 204 0 0 1.000000
-0.344315 -0.083945 0.090437 -0.956659 0.110449 0.269453 128 128 128 0.500000
-0.293496 0.477706 0.002427 0.993656 -0.110525 0.020766 128 128 128 0.500000
-0.226240 -0.623197 0.179366 -0.321028 -0.177038 0.930376 128 128 128 0.500000
0.156229 0.294153 0.182014 -0.236634 -0.075517 -0.968660 128 128 128 0.500000
-0.095695 0.415539 -0.186643 0.159459 -0.072992 0.984502 128 128 128 0.500000
-0.102630 -0.378595 -0.243686 -0.115462 0.072099 -0.990692 128 128 128 0.500000
-0.224602 -0.683151 -0.170589 0.329422 0.178063 0.927240 128 128 128 0.500000
-0.220031 -0.366908 0.216728 0.283087 -0.077577 -0.955952 128 128 128 0.500000
-0.132771 0.242410 -0.192714 0.200373 -0.074264 0.976901 128 128 128 0.500000
0.061262 -0.660030 -0.210453 0.085027 -0.159381 -0.983549 128 128 128 0.500000
0.160679 0.300462 -0.182369 0.240674 0.075735 -0.967647 128 128 128 0.500000
-0.128285 0.863863 0.071662 -0.539364 0.000000 -0.842073 128 128 128 0.500000
-0.157827 0.468256 -0.169289 0.263968 -0.076731 0.961475 128 128 128 0.500000
0.327665 0.100155 0.078850 -0.964787 -0.110591 -0.238654 128 128 128 0.500000
0.044052 0.298335 -0.201045 -0.061931 -0.071261 0.995533 128 128 128 0.500000
0.261258 -0.696977 -0.154601 -0.443030 0.195574 0.874914 128 128 128 0.500000
-0.118883 -0.416852 0.241384 -0.156425 -0.162346 0.974256 128 128 128 0.500000
-0.282240 -0.526104 0.177711 0.449001 0.196611 -0.871632 128 128 128 0.500000
-0.193419 0.457318 0.157564 -0.306179 0.078736 0.948712 128 128 128 0.500000
-0.186972 0.003122 -0.198286 0.252047 -0.076171 0.964713 128 128 128 0.500000
-0.013923 0.196644 0.207276 -0.023183 0.071058 0.997203 128 128 128 0.500000
-0.177735 0.955695 -0.030147 0.986994 -0.000000 0.160757 204 0 0 1.000000
-0.363186 -0.225139 -0.068283 0.983370 -0.110926 0.143798 128 128 128 0.500000
-0.064721 -0.861733 -0.099719 0.000000 -1.000000 -0.000000 128 128 128 0.500000
-0.282108 -0.836848 -0.033887 -0.958668 -0.244122 -0.146154 128 128 128 0.500000
-0.137340 -0.850372 0.164185 0.219553 0.166884 -0.961221 128 128 128 0.500000
0.385521 -0.357333 -0.027523 -0.993408 -0.111035 0.028486 128 128 128 0.500000
0.333775 -0.215607 0.160023 0.663517 0.101987 0.741178 128 128 128 0.500000
0.016934 0.926292 -0.181644 -0.087105 -0.000000 0.996199 204 0 0 1.000000
-0.371207 -0.411870 0.120359 -0.879834 -0.243900 0.407927 128 128 128 0.500000
-0.084520 0.710505 0.119033 -0.580846 -0.000000 0.814014 128 128 128 0.500000
-0.140256 -0.784270 0.175145 0.215192 0.166440 -0.962284 128 128 128 0.500000
0.383794 -0.339318 -0.025435 0.993514 0.110995 -0.024709 128 128 128 0.500000
-0.338773 -0.465642 0.163835 -0.701521 -0.230564 0.674321 128 128 128 0.500000
-0.037099 0.657406 0.124158 -0.006353 0.995984 0.089306 128 128 128 0.500000
0.087758 -0.389838 0.244376 -0.094097 -0.071776 -0.992972 128 128 128 0.500000
-0.315860 -0.496345 -0.171443 -0.647050 -0.224519 -0.728641 128 128 128 0.500000
0.380723 -0.351442 -0.058992 0.987755 0.111187 -0.109445 128 128 128 0.500000
-0.291261 -0.257681 -0.185352 -0.420057 0.086376 -0.903378 128 128 128 0.500000
0.108355 0.650258 0.139769 0.094586 0.870106 0.483704 128 128 128 0.500000
-0.373479 -0.350967 -0.096301 -0.972840 0.110438 -0.203437 128 128 128 0.500000
0.357623 -0.081013 -0.006221 -0.993868 -0.110558 -0.001933 128 128 128 0.500000
0.333846 -0.396416 0.178721 -0.533151 -0.094130 -0.840767 128 128 128 0.500000
-0.260188 -0.861733 -0.028996 0.000000 1.000000 0.000000 128 128 128 0.500000
0.293745 0.328532 -0.102052 -0.911495 -0.110941 0.396067 128 128 128 0.500000
-0.125106 -0.117990 0.219119 0.176626 -0.073509 -0.981529 128 128 128 0.500000
-0.222486 0.572539 0.136992 -0.448793 0.088516 0.889241 128 128 128 0.500000
-0.122051 -0.033209 -0.215362 -0.162305 0.073133 -0.984027 128 128 128 0.500000
0.146887 -0.397719 -0.238475 -0.189717 -0.073973 0.979048 128 128 128 0.500000
0.120812 -0.661887 -0.202164 0.168233 -0.163209 -0.972142 128 128 128 0.500000
0.069191 0.657583 0.047995 0.000000 1.000000 0.000000 128 128 128 0.500000
-0.070923 -0.779298 -0.189707 -0.108419 -0.160303 -0.981095 128 128 128 0.500000
-0.334837 -0.626941 -0.031968 0.967005 0.243430 0.075120 128 128 128 0.500000
-0.249540 -0.486552 -0.199283 0.325132 0.177652 0.928832 128 128 128 0.500000
0.136115 0.821678 0.058266 0.915589 -0.000000 0.402115 128 128 128 0.500000
-0.359090 -0.188825 -0.068746 -0.982747 0.110868 -0.148042 128 128 128 0.500000
0.319491 -0.453129 0.177717 0.549573 -0.212047 0.808088 128 128 128 0.500000
-0.377711 -0.277674 -0.002293 -0.993467 0.110417 0.028831 128 128 128 0.500000
0.157341 0.983954 -0.093978 0.000000 1.000000 0.000000 204 0 0 1.000000
-0.146393 0.631463 0.150615 -0.214962 0.536535 0.816040 128 128 128 0.500000
-0.095554 0.655602 -0.130610 -0.046497 0.964950 -0.258282 128 128 128 0.500000
-0.318629 -0.706865 -0.003314 -0.969938 -0.242609 -0.018988 128 128 128 0.500000
-0.103692 0.889748 0.104322 -0.705412 -0.000000 0.708797 128 128 128 0.500000
0.015428 -0.661958 -0.212518 -0.018558 0.158178 0.987236 128 128 128 0.500000
0.339295 -0.252898 0.157430 -0.683000 -0.103151 -0.723098 128 128 128 0.500000
-0.119705 -0.378858 0.239671 -0.160150 0.072991 0.984390 128 128 128 0.500000
-0.163601 0.222995 0.185081 -0.244658 0.075883 0.966635 128 128 128 0.500000
0.215281 -0.602507 0.187841 -0.289816 0.173393 -0.941245 128 128 128 0.500000
0.335196 -0.487467 0.163841 0.691401 -0.229358 0.685098 128 128 128 0.500000
0.293064 0.354891 -0.096107 -0.924933 -0.110887 0.363598 128 128 128 0.500000
-0.068713 0.983954 -0.107843 0.000000 1.000000 0.000000 204 0 0 1.000000
0.334034 -0.519451 0.145928 -0.772176 0.238067 -0.589125 128 128 128 0.500000
-0.347181 -0.065175 0.052821 0.978167 -0.110979 -0.175705 128 128 128 0.500000
-0.250377 0.377767 0.142824 -0.563367 0.096171 0.820591 128 128 128 0.500000
-0.325014 0.030584 0.104798 0.895413 -0.111230 -0.431119 128 128 128 0.500000
0.359792 -0.499588 0.096608 -0.940994 0.242833 -0.235719 128 128 128 0.500000
-0.334675 -0.127851 0.127083 0.835640 -0.109878 -0.538175 128 128 128 0.500000
0.109176 -0.223995 0.229999 -0.128471 -0.072279 -0.989076 128 128 128 0.500000
-0.311478 -0.285381 -0.179217 0.542286 -0.094866 0.834821 128 128 128 0.500000
-0.257246 -0.243672 0.194677 -0.338615 0.080507 0.937475 128 128 128 0.500000
-0.288330 -0.711005 0.126697 -0.743858 -0.235230 0.625574 128 128 128 0.500000
0.271327 -0.811142 -0.110418 -0.847093 0.243092 0.472588 128 128 128 0.500000
0.326059 0.178866 -0.026644 0.991199 0.110766 -0.072499 128 128 128 0.500000
0.092937 -0.074362 0.220970 -0.114515 -0.072044 -0.990806 128 128 128 0.500000
-0.264409 -0.567656 -0.178794 -0.356578 -0.181512 -0.916463 128 128 128 0.500000
0.109398 -0.861733 0.102495 0.000000 -1.000000 -0.000000 128 128 128 0.500000
0.288512 0.534858 -0.011398 0.991541 0.110591 -0.067945 128 128 128 0.500000
-0.307434 0.327351 -0.025479 0.990448 -0.110653 0.082275 128 128 128 0.500000
-0.058390 0.657583 -0.095450 0.000000 1.000000 0.000000 128 128 128 0.500000
-0.157560 -0.211904 -0.222141 -0.193848 0.074014 -0.978236 128 128 128 0.500000
-0.286269 -0.544402 -0.174251 -0.478712 -0.201200 -0.854607 128 128 128 0.500000
0.323070 0.135707 0.083748 -0.961851 -0.110464 -0.250279 128 128 128 0.500000
-0.328210 -0.034749 -0.117916 -0.893804 0.111468 -0.434383 128 128 128 0.500000
0.313803 -0.104964 0.160698 -0.585611 -0.097394 -0.804720 128 128 128 0.500000
0.331058 0.157759 0.004458 0.993765 0.110607 0.014043 128 128 128 0.500000
-0.382309 -0.382076 -0.055483 0.988964 -0.111235 0.097865 128 128 128 0.500000
-0.307019 -0.066454 -0.161138 -0.643199 0.100867 -0.759027 128 128 128 0.500000
-0.127966 0.779486 -0.074459 -0.869196 0.000000 -0.494467 128 128 128 0.500000
0.025460 0.583818 0.179403 -0.052694 -0.071289 -0.996063 128 128 128 0.500000
-0.164379 0.910600 -0.074776 0.913403 -0.000000 0.407057 204 0 0 1.000000
0.045284 0.883655 -0.142257 0.090395 0.000000 -0.995906 128 128 128 0.500000
0.141647 0.657583 -0.102685 0.000000 -1.000000 -0.000000 128 128 128 0.500000
0.026707 -0.229309 -0.239205 0.042688 0.071187 -0.996549 128 128 128 0.500000
-0.094889 0.825064 0.111076 -0.650607 -0.000000 0.759414 128 128 128 0.500000
0.168683 0.460801 0.165591 0.277453 0.077321 0.957623 128 128 128 0.500000
0.266391 0.638672 0.011600 -0.741729 -0.669667 -0.037208 128 128 128 0.500000
-0.338594 -0.264203 0.156871 -0.743218 0.106083 0.660585 128 128 128 0.500000
-0.031929 -0.570987 -0.226382 -0.050670 -0.158642 -0.986035 128 128 128 0.500000
-0.364083 -0.246885 0.077798 -0.964311 0.110864 0.240443 128 128 128 0.500000
-0.134343 -0.861733 0.076308 0.000000 1.000000 0.000000 128 128 128 0.500000
0.155192 -0.548879 -0.214817 -0.194506 0.164896 0.966942 128 128 128 0.500000
-0.350681 -0.411392 -0.172087 -0.718724 0.104865 -0.687342 128 128 128 0.500000
0.073365 0.657583 -0.040418 0.000000 -1.000000 -0.000000 128 128 128 0.500000
0.366347 -0.161867 0.006173 0.992725 0.110551 0.047694 128 128 128 0.500000
-0.311482 -0.707411 0.054536 -0.954653 -0.243126 0.171837 128 128 128 0.500000
-0.237305 -0.606908 0.178648 -0.331353 -0.178358 0.926495 128 128 128 0.500000
-0.172077 -0.020782 -0.204096 0.231866 -0.075367 0.969824 128 128 128 0.500000
-0.120794 0.462332 -0.178465 -0.204185 0.074413 -0.976100 128 128 128 0.500000
0.300796 0.357880 -0.067452 0.966137 0.110855 -0.233005 128 128 128 0.500000
-0.146325 0.783849 0.008043 0.998120 0.000000 -0.061297 128 128 128 0.500000
0.023250 0.657583 0.023723 0.000000 -1.000000 -0.000000 128 128 128 0.500000
-0.363000 -0.511360 0.035510 -0.961068 -0.243707 0.130212 128 128 128 0.500000
-0.240557 -0.362592 -0.212463 0.287031 -0.077718 0.954763 128 128 128 0.500000
0.072737 0.872039 0.128859 -0.482785 0.000000 -0.875739 128 128 128 0.500000
-0.007603 0.842597 0.146493 0.059172 0.000000 -0.998248 128 128 128 0.500000
0.025351 -0.435616 -0.248367 -0.018315 0.158327 0.987217 128 128 128 0.500000
0.080966 0.773704 0.123510 0.539681 -0.000000 0.841870 128 128 128 0.500000
0.346207 -0.208098 -0.129872 0.902704 0.111365 -0.415599 128 128 128 0.500000
-0.372524 -0.303344 0.061337 -0.973453 0.111134 0.200097 128 128 128 0.500000
-0.058712 0.828472 -0.135750 0.405964 -0.000000 0.913889 128 128 128 0.500000
-0.361566 -0.222344 0.076202 0.965364 -0.110877 -0.236177 128 128 128 0.500000
-0.152878 0.412139 0.172992 0.238301 -0.075655 -0.968240 128 128 128 0.500000
-0.362289 -0.282027 -0.106823 -0.953177 0.111269 -0.281200 128 128 128 0.500000
-0.305577 0.324852 0.039668 -0.985893 0.110952 0.125317 128 128 128 0.500000
-0.217057 -0.663822 0.174822 -0.314832 -0.176323 0.932626 128 128 128 0.500000
0.262335 0.387218 0.137814 -0.658395 -0.101747 -0.745764 128 128 128 0.500000
-0.120375 0.222909 0.194457 -0.181880 0.073673 0.980557 128 128 128 0.500000
0.034734 -0.578500 0.223134 -0.037298 0.158384 -0.986673 128 128 128 0.500000
0.287359 0.226491 -0.143792 0.671286 0.102349 -0.734098 128 128 128 0.500000
0.111481 0.656197 0.123138 -0.042439 -0.977289 -0.207616 128 128 128 0.500000
-0.351818 -0.299139 0.135002 0.837287 -0.109928 -0.535600 128 128 128 0.500000
0.184931 -0.861733 0.069344 0.000000 -1.000000 -0.000000 128 128 128 0.500000
0.111907 0.087535 -0.208627 0.158945 0.073019 -0.984583 128 128 128 0.500000
-0.266076 0.550604 0.097393 0.877738 -0.111627 -0.465956 128 128 128 0.500000
0.324809 -0.328198 -0.178391 0.654595 0.101567 -0.749126 128 128 128 0.500000
0.220586 -0.259364 -0.210728 -0.287216 -0.077739 0.954706 128 128 128 0.500000
0.275658 0.103591 0.158002 0.466372 0.089483 0.880051 128 128 128 0.500000
0.012638 -0.475247 -0.242494 0.005144 -0.158161 -0.987400 128 128 128 0.500000
-0.018617 0.332271 0.197458 -0.027895 0.071095 0.997079 128 128 128 0.500000
0.329414 0.100068 -0.067660 -0.976268 -0.110841 0.186050 128 128 128 0.500000
0.166295 -0.770601 -0.173335 0.261442 -0.170650 -0.950014 128 128 128 0.500000
0.060139 0.091943 -0.214596 0.085704 0.071573 -0.993747 128 128 128 0.500000
-0.295008 -0.722962 -0.104855 0.889188 0.243538 0.387343 128 128 128 0.500000
0.372230 -0.495792 0.012281 0.969953 -0.243209 0.006306 128 128 128 0.500000
0.193711 0.487998 0.155663 -0.320496 -0.079472 -0.943910 128 128 128 0.500000
-0.270954 0.476902 0.106832 -0.833011 0.110216 0.542168 128 128 128 0.500000
-0.140545 -0.450869 0.231617 -0.185543 -0.164449 0.968778 128 128 128 0.500000
-0.232288 0.656798 -0.002700 -0.156904 0.987613 -0.000923 128 128 128 0.500000
-0.140800 -0.305721 0.230265 -0.188578 0.073924 0.979272 128 128 128 0.500000
0.092712 -0.722712 -0.196759 0.140835 -0.161648 -0.976747 128 128 128 0.500000
0.301630 -0.218636 0.176294 -0.455265 -0.088817 -0.885915 128 128 128 0.500000
0.312584 0.012923 0.145397 -0.727519 -0.105324 -0.677955 128 128 128 0.500000
0.280632 0.545381 -0.062370 -0.961927 -0.110875 0.249805 128 128 128 0.500000
0.312572 -0.517533 -0.169477 -0.515132 0.206671 0.831821 128 128 128 0.500000
-0.139735 0.883973 0.112963 0.777423 0.000000 -0.628978 204 0 0 1.000000
-0.156243 0.821121 -0.093475 0.862213 -0.000000 0.506546 204 0 0 1.000000
-0.143191 -0.038615 -0.211832 0.187670 -0.073828 0.979454 128 128 128 0.500000
0.352872 -0.267410 0.128830 0.839679 0.110115 0.531802 128 128 128 0.500000
-0.238018 -0.518009 -0.197282 -0.316862 -0.176575 -0.931890 128 128 128 0.500000
-0.067752 0.392940 -0.191716 0.112369 -0.072045 0.991051 128 128 128 0.500000
-0.202486 -0.861733 -0.122926 0.000000 -1.000000 -0.000000 128 128 128 0.500000
-0.049129 0.178277 -0.209311 -0.075263 0.071386 -0.994605 128 128 128 0.500000
-0.359942 -0.444045 -0.128743 0.896219 0.245113 0.369743 128 128 128 0.500000
-0.029356 0.657583 0.066781 0.000000 -1.000000 -0.000000 128 128 128 0.500000
-0.168974 -0.631745 0.194638 -0.242206 -0.168766 0.955434 128 128 128 0.500000
-0.145568 0.492118 0.168612 -0.230863 0.075364 0.970063 128 128 128 0.500000
0.173892 -0.786850 -0.168450 0.279008 -0.172351 -0.944696 128 128 128 0.500000
0.201107 0.654907 -0.103678 -0.108992 -0.954107 0.278927 128 128 128 0.500000
0.020645 0.657583 0.077544 0.000000 -1.000000 -0.000000 128 128 128 0.500000
-0.221902 0.137931 -0.176705 -0.316861 0.079245 -0.945156 128 128 128 0.500000
-0.301753 -0.725629 0.084817 -0.929452 -0.243868 0.276854 128 128 128 0.500000
0.133490 0.817328 -0.126098 0.726771 0.000000 -0.686879 204 0 0 1.000000
-0.236209 -0.101954 -0.191997 0.309155 -0.078871 0.947736 128 128 128 0.500000
-0.308855 -0.738425 -0.017623 -0.968154 -0.242938 -0.060496 128 128 128 0.500000
0.005096 0.817852 -0.149149 -0.026693 -0.000000 0.999644 128 128 128 0.500000
0.027680 -0.861733 -0.019752 0.000000 -1.000000 -0.000000 128 128 128 0.500000
-0.237355 -0.337812 0.209450 -0.307113 0.078693 0.948414 128 128 128 0.500000
-0.083743 0.877029 -0.121655 0.105594 -0.000000 0.994409 128 128 128 0.500000
-0.017936 -0.141653 0.231185 -0.034497 0.071105 0.996872 128 128 128 0.500000
0.280640 -0.753847 -0.125043 -0.794599 0.239045 0.558095 128 128 128 0.500000
0.283557 0.426204 0.096506 -0.916358 -0.111532 -0.384511 128 128 128 0.500000
-0.260404 -0.715277 -0.150230 -0.501019 -0.204564 -0.840912 128 128 128 0.500000
-0.046903 0.858714 -0.140641 0.325356 -0.000000 0.945591 128 128 128 0.500000
-0.269844 -0.806957 0.109177 0.798204 0.240860 -0.552139 128 128 128 0.500000
0.181027 0.907955 0.020439 -0.992964 0.000000 -0.118416 204 0 0 1.000000
-0.143869 0.081494 -0.202706 0.201538 -0.074278 0.976660 128 128 128 0.500000
-0.180212 0.318436 -0.175204 0.281310 -0.077468 0.956485 128 128 128 0.500000
0.309809 -0.309449 0.181082 -0.456250 -0.088918 -0.885398 128 128 128 0.500000
-0.038692 0.657583 0.035832 0.000000 1.000000 0.000000 128 128 128 0.500000
0.000612 0.828629 -0.183654 -0.002892 0.000000 -0.999996 204 0 0 1.000000
0.171157 0.818447 0.061892 0.937864 -0.000000 0.347002 204 0 0 1.000000
0.126990 0.983954 -0.022466 0.000000 -1.000000 -0.000000 204 0 0 1.000000
-0.129545 0.382278 -0.182834 0.210229 -0.074588 0.974803 128 128 128 0.500000
-0.178557 -0.861733 0.071928 0.000000 1.000000 0.000000 128 128 128 0.500000
-0.287647 -0.432508 0.194397 0.360810 0.182117 -0.914686 128 128 128 0.500000
-0.329199 -0.655571 -0.020429 -0.968591 -0.243200 -0.051816 128 128 128 0.500000
-0.354110 -0.546688 0.035944 -0.961084 -0.243571 0.130347 128 128 128 0.500000
0.026117 0.983954 -0.155725 0.000000 1.000000 0.000000 204 0 0 1.000000
-0.293783 0.340425 0.091004 -0.927519 0.111729 0.356686 128 128 128 0.500000
-0.277224 0.550950 0.064207 0.975006 -0.110584 -0.192705 128 128 128 0.500000
-0.200677 0.118399 -0.185585 -0.288503 0.077748 -0.954317 128 128 128 0.500000
-0.135385 0.893921 0.089826 0.000000 -1.000000 -0.000000 128 128 128 0.500000
0.319192 -0.040731 -0.146914 -0.801397 -0.108434 0.588221 128 128 128 0.500000
0.064959 -0.760475 -0.193686 -0.101082 0.159949 0.981936 128 128 128 0.500000
-0.097135 -0.773480 0.185308 -0.146784 -0.161970 0.975818 128 128 128 0.500000
-0.093287 0.861652 -0.156888 -0.518128 0.000000 -0.855303 204 0 0 1.000000
0.236634 0.479654 -0.142414 -0.448599 -0.088371 0.889353 128 128 128 0.500000
-0.225270 -0.804653 -0.146925 -0.377098 -0.185326 -0.907442 128 128 128 0.500000
0.043728 0.465115 -0.189197 0.060961 0.071231 -0.995595 128 128 128 0.500000
0.028083 0.366244 0.194778 0.045598 0.071204 0.996419 128 128 128 0.500000
-0.301477 0.359875 0.041247 0.985554 -0.110969 -0.127943 128 128 128 0.500000
-0.041333 0.240359 0.203158 0.061599 -0.071267 -0.995553 128 128 128 0.500000
-0.337703 0.056012 -0.024562 -0.992225 0.110829 -0.056618 128 128 128 0.500000
-0.145521 0.841526 -0.016169 -0.994703 0.000000 -0.102794 128 128 128 0.500000
0.052672 0.008175 -0.221361 0.073391 0.071375 -0.994746 128 128 128 0.500000
0.050080 -0.550600 -0.229059 0.057714 -0.158656 -0.985646 128 128 128 0.500000
-0.312758 0.298955 -0.009005 0.993148 -0.110547 0.037898 128 128 128 0.500000
-0.205902 0.062634 0.186527 -0.291211 0.077878 0.953484 128 128 128 0.500000
0.223721 0.130637 -0.177478 -0.323998 -0.079628 0.942701 128 128 128 0.500000
-0.103578 0.772534 -0.106435 -0.704735 0.000000 -0.709471 128 128 128 0.500000
0.088551 0.411709 -0.188304 0.132612 0.072358 -0.988523 128 128 128 0.500000
0.253055 0.569688 -0.127156 0.599585 0.098198 -0.794264 128 128 128 0.500000
0.091361 -0.577482 -0.220557 0.113019 -0.160396 -0.980561 128 128 128 0.500000
0.180164 -0.163730 0.211812 0.226740 0.075177 0.971050 128 128 128 0.500000
0.228986 -0.861733 0.093736 0.000000 -1.000000 -0.000000 128 128 128 0.500000
0.159753 0.893921 0.017413 0.000000 1.000000 0.000000 128 128 128 0.500000
0.183400 0.881445 0.002409 0.999824 -0.000000 0.018772 204 0 0 1.000000
-0.276348 0.539859 -0.077712 -0.944513 0.110509 -0.309325 128 128 128 0.500000
-0.373308 -0.472313 -0.033382 0.968544 0.243895 0.049375 128 128 128 0.500000
0.309359 -0.140826 -0.167903 -0.639467 -0.100684 0.762197 128 128 128 0.500000
0.266898 0.616009 -0.083224 0.925234 0.262688 -0.273746 128 128 128 0.500000
0.083021 0.003846 -0.218435 -0.118881 -0.072148 0.990284 128 128 128 0.500000
-0.179447 0.878499 0.015122 0.996032 0.000000 -0.088992 204 0 0 1.000000
0.152174 -0.421430 0.234840 -0.171112 0.163545 -0.971583 128 128 128 0.500000
-0.323099 -0.083728 0.142329 0.767466 -0.107243 -0.632056 128 128 128 0.500000
0.195653 0.098270 0.187071 0.273444 0.077097 0.958793 128 128 128 0.500000
-0.169228 -0.545756 0.209828 -0.230604 -0.167680 0.958491 128 128 128 0.500000
0.348896 -0.588767 -0.014995 -0.968277 0.243130 0.057689 128 128 128 0.500000
0.283754 0.429024 -0.097243 -0.900558 -0.111053 0.420313 128 128 128 0.500000
0.205251 -0.183862 0.206789 -0.255590 -0.076335 -0.963767 128 128 128 0.500000
-0.070860 0.879378 -0.167262 -0.397414 0.000000 -0.917639 204 0 0 1.000000
0.063657 0.127670 -0.211621 0.091880 0.071679 -0.993187 128 128 128 0.500000
-0.304269 0.197134 0.106938 0.866473 -0.110884 -0.486755 128 128 128 0.500000
-0.283295 0.528843 0.036749 -0.989007 0.111200 0.097463 128 128 128 0.500000
-0.310060 0.086581 0.124780 -0.804773 0.108816 0.583523 128 128 128 0.500000
-0.097225 0.746126 0.109284 0.665585 0.000000 -0.746322 128 128 128 0.500000
0.039318 -0.861733 -0.080356 0.000000 -1.000000 -0.000000 128 128 128 0.500000
0.017386 0.754461 0.145505 -0.110203 0.000000 -0.993909 128 128 128 0.500000
-0.362499 -0.528979 -0.007879 -0.970050 -0.242884 0.003362 128 128 128 0.500000
-0.281477 -0.065755 -0.172020 0.467535 -0.089732 0.879408 128 128 128 0.500000
0.298090 0.231262 -0.119563 -0.854180 -0.110281 0.508148 128 128 128 0.500000
0.252246 -0.032625 0.179398 -0.334342 -0.080200 -0.939033 128 128 128 0.500000
0.376620 -0.358273 0.093902 0.953207 0.110531 0.281387 128 128 128 0.500000
-0.212862 0.035699 -0.188428 0.295089 -0.078100 0.952272 128 128 128 0.500000
-0.010994 0.982976 0.180100 -0.066848 -0.000000 0.997763 204 0 0 1.000000
-0.039511 0.053243 0.216531 -0.060035 0.071281 0.995648 128 128 128 0.500000
0.109209 0.657583 -0.098140 0.000000 1.000000 0.000000 128 128 128 0.500000
0.119086 0.657583 0.062646 0.000000 1.000000 0.000000 128 128 128 0.500000
0.167759 -0.179488 -0.218239 0.223165 0.074977 -0.971893 128 128 128 0.500000
0.113390 0.245688 0.194475 0.167165 0.073232 0.983205 128 128 128 0.500000
0.308946 -0.044129 0.157225 -0.611101 -0.098957 -0.785342 128 128 128 0.500000
-0.290406 -0.805650 0.028075 0.967284 0.244035 -0.069338 128 128 128 0.500000
-0.277499 0.607623 -0.018481 -0.992031 0.122085 -0.031154 128 128 128 0.500000
-0.017399 -0.359924 -0.248752 0.011547 -0.071055 0.997406 128 128 128 0.500000
0.111038 0.865933 -0.145017 -0.606675 -0.000000 0.794950 204 0 0 1.000000
-0.295435 -0.554821 0.166157 0.570216 0.214606 -0.792968 128 128 128 0.500000
-0.079336 0.467335 0.183021 0.124121 -0.072208 -0.989636 128 128 128 0.500000
-0.017763 0.983954 0.142589 0.000000 -1.000000 -0.000000 204 0 0 1.000000
0.107485 0.266591 -0.196033 0.157508 0.073003 -0.984816 128 128 128 0.500000
-0.270963 0.602430 -0.070723 -0.989343 0.075226 -0.124670 128 128 128 0.500000
0.055762 -0.150099 -0.232502 -0.077684 -0.071423 0.994416 128 128 128 0.500000
0.040488 0.983954 0.012325 0.000000 -1.000000 -0.000000 204 0 0 1.000000
-0.330122 -0.182184 0.153716 0.739534 -0.105898 -0.664736 128 128 128 0.500000
0.358059 -0.327774 0.133684 0.821694 0.109630 0.559286 128 128 128 0.500000
0.144225 0.000001 0.207144 0.189332 0.073880 0.979130 128 128 128 0.500000
-0.314923 0.261494 -0.024177 -0.991146 0.110699 -0.073311 128 128 128 0.500000
0.141680 0.629181 -0.156009 -0.210970 -0.495099 0.842834 128 128 128 0.500000
0.320262 -0.704757 0.010205 -0.969194 0.242906 -0.040733 128 128 128 0.500000
-0.256744 -0.763278 0.139911 0.607308 0.219574 -0.763521 128 128 128 0.500000
0.179019 0.354832 0.171224 0.280420 0.077434 0.956749 128 128 128 0.500000
-0.345643 -0.216718 0.126185 0.854159 -0.110386 -0.508161 128 128 128 0.500000
0.199811 -0.337433 0.220332 -0.235893 -0.075573 -0.968836 128 128 128 0.500000
0.259265 -0.553232 -0.184082 -0.332014 0.178365 0.926257 128 128 128 0.500000
-0.259966 -0.486673 0.193649 -0.337506 -0.179211 0.924106 128 128 128 0.500000
0.067619 0.654582 -0.138237 0.036778 0.948607 -0.314312 128 128 128 0.500000
0.330337 -0.277241 -0.171369 -0.719676 -0.104857 0.686346 128 128 128 0.500000
0.136916 0.657583 0.094158 0.000000 -1.000000 -0.000000 128 128 128 0.500000
-0.327539 0.144774 0.024832 0.989939 -0.110888 -0.087887 128 128 128 0.500000
-0.274221 0.366027 -0.132888 -0.728327 0.105324 -0.677087 128 128 128 0.500000
0.103232 -0.711819 0.194993 0.154309 -0.162309 0.974600 128 128 128 0.500000
-0.239156 -0.861733 0.105032 0.000000 1.000000 0.000000 128 128 128 0.500000
-0.208875 0.488899 -0.151614 0.350140 -0.081166 0.933174 128 128 128 0.500000
0.205155 0.268992 0.170181 -0.307415 -0.078728 -0.948313 128 128 128 0.500000
0.139436 0.727006 0.050247 -0.937662 0.000000 -0.347548 128 128 128 0.500000
0.348702 -0.289484 0.145252 0.757501 0.107044 0.643998 128 128 128 0.500000
0.039625 -0.247433 -0.240018 -0.058445 -0.071311 0.995740 128 128 128 0.500000
-0.142536 -0.266731 -0.229046 -0.172033 0.073437 -0.982350 128 128 128 0.500000
0.149316 -0.861733 0.131777 0.000000 -1.000000 -0.000000 128 128 128 0.500000
0.073805 0.143076 0.207355 -0.100985 -0.071812 -0.992293 128 128 128 0.500000
0.076434 0.983954 0.145728 0.000000 -1.000000 -0.000000 204 0 0 1.000000
0.279662 0.287706 -0.141501 0.647240 0.101031 -0.755562 128 128 128 0.500000
-0.232689 -0.861733 0.067447 0.000000 -1.000000 -0.000000 128 128 128 0.500000
-0.046501 0.983954 0.120797 0.000000 1.000000 0.000000 204 0 0 1.000000
-0.128143 -0.618057 0.205739 -0.184743 -0.164279 0.968959 128 128 128 0.500000
0.322684 -0.247557 0.169912 0.541770 0.094629 0.835183 128 128 128 0.500000
-0.004915 0.664110 0.146847 0.040918 0.000000 -0.999162 128 128 128 0.500000
0.362773 -0.155571 -0.030032 -0.992442 -0.110989 0.052338 128 128 128 0.500000
0.124555 -0.020326 -0.214354 -0.176833 -0.073503 0.981492 128 128 128 0.500000
0.252498 -0.625125 -0.172779 0.346695 -0.180245 -0.920497 128 128 128 0.500000
-0.288170 0.514579 -0.013784 0.991205 -0.110628 0.072622 128 128 128 0.500000
0.254642 0.186806 -0.161436 0.411528 0.085595 -0.907369 128 128 128 0.500000
0.027090 0.427631 0.190449 0.047171 0.071225 0.996344 128 128 128 0.500000
-0.158993 -0.437029 0.230516 -0.206437 -0.165909 0.964292 128 128 128 0.500000
0.021316 -0.861733 0.056415 0.000000 -1.000000 -0.000000 128 128 128 0.500000
0.266763 0.283512 0.145386 0.573267 0.096701 0.813643 128 128 128 0.500000
0.299683 -0.647232 -0.148124 0.696583 -0.229920 -0.679639 128 128 128 0.500000
0.230630 -0.329685 0.211601 -0.274015 -0.077063 -0.958633 128 128 128 0.500000
0.004582 0.233651 0.205072 -0.007539 -0.070954 -0.997451 128 128 128 0.500000
0.105354 0.287266 -0.194881 -0.154573 -0.072921 0.985287 128 128 128 0.500000
-0.020745 -0.743846 0.197110 -0.031105 -0.158374 0.986889 128 128 128 0.500000
-0.027603 0.827293 -0.179940 0.158609 -0.000000 0.987341 204 0 0 1.000000
0.191944 0.144500 0.184403 0.273499 0.077105 0.958777 128 128 128 0.500000
-0.062829 0.200803 -0.206167 0.092989 -0.071678 0.993084 128 128 128 0.500000
-0.049561 -0.042251 -0.224977 0.064300 -0.071286 0.995381 128 128 128 0.500000
0.033705 -0.267066 -0.241632 -0.051321 -0.071261 0.996136 128 128 128 0.500000
-0.063649 -0.336506 0.242936 -0.092227 0.071639 0.993158 128 128 128 0.500000
-0.107674 -0.861733 0.125032 0.000000 1.000000 0.000000 128 128 128 0.500000
0.050115 0.577466 -0.180569 0.071008 0.071388 -0.994918 128 128 128 0.500000
0.303659 -0.767273 0.017602 0.967462 -0.242873 0.070918 128 128 128 0.500000
0.120990 -0.513978 0.225042 -0.146978 0.161973 -0.975788 128 128 128 0.500000
-0.068831 -0.187490 -0.233603 -0.082893 0.071565 -0.993986 128 128 128 0.500000
0.171634 0.260169 -0.182660 -0.256785 -0.076366 0.963447 128 128 128 0.500000
-0.067724 -0.573004 -0.223654 0.100763 0.159909 0.981976 128 128 128 0.500000
0.275372 0.580561 0.070607 0.970979 0.110357 0.212182 128 128 128 0.500000
-0.002907 0.525421 -0.186328 -0.015328 0.070952 -0.997362 128 128 128 0.500000
0.373670 -0.271750 0.043281 0.981777 0.111131 0.154158 128 128 128 0.500000
0.346532 -0.077133 -0.087193 0.968849 0.110567 -0.221598 128 128 128 0.500000
0.300059 -0.728335 0.092659 -0.902497 0.244050 -0.354879 128 128 128 0.500000
0.304041 -0.139469 0.168033 0.499662 0.091841 0.861338 128 128 128 0.500000
-0.008533 0.065441 0.216804 0.017177 -0.071015 -0.997327 128 128 128 0.500000
-0.372328 -0.421932 -0.113162 -0.930828 -0.244213 -0.271881 128 128 128 0.500000
-0.352495 -0.108686 0.049185 -0.979675 0.111013 0.167072 128 128 128 0.500000
-0.194151 -0.573695 0.198304 -0.267174 -0.171160 0.948326 128 128 128 0.500000
