0.102283 0.030194 -0.332746 0.000000 0.500000 0.500000
-0.684129 0.000271 0.235689 0.500000 0.000000 0.500000
0.288441 -0.003268 -0.519007 0.000000 0.500000 0.500000
0.177006 0.019098 -0.156678 0.500000 0.000000 0.500000
0.194096 -0.009744 -0.258136 0.000000 0.500000 0.500000
-0.519471 -0.018556 -0.174785 0.300000 0.600000 0.000000
-0.233966 0.009080 0.207772 0.500000 0.000000 0.500000
-0.053652 0.000271 0.087073 0.500000 0.000000 0.500000
-0.362649 -0.018556 -0.036954 0.300000 0.600000 0.000000
0.129871 0.006060 0.355928 0.600000 0.000000 0.300000
-0.700486 0.019098 0.347671 0.500000 0.000000 0.500000
0.485666 0.018853 -0.309397 0.000000 0.500000 0.500000
0.595707 0.015098 -0.367818 0.000000 0.500000 0.500000
-0.667286 0.000271 0.314581 0.500000 0.000000 0.500000
0.181959 0.000271 0.116351 0.300000 0.600000 0.000000
0.311777 -0.028571 0.223071 0.600000 0.000000 0.300000
-0.307266 0.010992 0.031646 0.500000 0.000000 0.500000
-0.315329 0.000271 0.131758 0.500000 0.000000 0.500000
0.473545 0.003971 0.166085 0.600000 0.000000 0.300000
-0.130115 -0.018556 -0.148325 0.300000 0.600000 0.000000
-0.674663 -0.018556 -0.217663 0.300000 0.600000 0.000000
-0.361719 0.000271 -0.098170 0.300000 0.600000 0.000000
0.257424 0.030194 -0.301984 0.000000 0.500000 0.500000
-0.665225 -0.014768 -0.248540 0.300000 0.600000 0.000000
-0.159951 -0.007770 -0.159446 0.300000 0.600000 0.000000
-0.092359 0.000271 -0.030007 0.300000 0.600000 0.000000
0.184695 -0.009744 -0.465862 0.000000 0.500000 0.500000
0.040619 -0.013517 0.215015 0.600000 0.000000 0.300000
0.073912 0.027718 -0.120329 0.000000 0.500000 0.500000
0.078113 -0.009744 -0.313936 0.000000 0.500000 0.500000
0.149971 0.030194 -0.239827 0.000000 0.500000 0.500000
0.151899 -0.028571 0.165152 0.600000 0.000000 0.300000
-0.468037 0.019098 0.210216 0.500000 0.000000 0.500000
-0.675008 0.000271 0.324066 0.500000 0.000000 0.500000
-0.455802 0.000271 0.116769 0.500000 0.000000 0.500000
-0.345126 0.000271 0.114983 0.500000 0.000000 0.500000
0.451211 -0.019672 0.573748 0.600000 0.000000 0.300000
0.178904 0.000271 0.044155 0.300000 0.600000 0.000000
-0.537712 0.000271 -0.155373 0.300000 0.600000 0.000000
0.103507 0.019098 -0.058401 0.500000 0.000000 0.500000
0.276234 0.011367 0.353542 0.600000 0.000000 0.300000
0.312374 -0.006528 -0.309113 0.000000 0.500000 0.500000
-0.420886 0.019098 0.131365 0.500000 0.000000 0.500000
-0.858679 0.000271 0.360694 0.500000 0.000000 0.500000
0.132889 -0.018559 0.101321 0.600000 0.000000 0.300000
-0.313069 -0.018556 -0.001838 0.300000 0.600000 0.000000
-0.573443 0.000271 0.215803 0.500000 0.000000 0.500000
0.300185 0.006074 0.510703 0.600000 0.000000 0.300000
0.369755 -0.028571 0.154852 0.600000 0.000000 0.300000
-0.707928 0.017189 0.265079 0.500000 0.000000 0.500000
0.598696 0.002054 0.511888 0.600000 0.000000 0.300000
0.548974 -0.009744 -0.502243 0.000000 0.500000 0.500000
0.053980 0.030194 -0.187379 0.000000 0.500000 0.500000
-0.306158 0.019098 0.104967 0.500000 0.000000 0.500000
0.211114 0.030194 -0.259719 0.000000 0.500000 0.500000
0.261453 0.030194 -0.169285 0.000000 0.500000 0.500000
-0.657703 0.000271 0.296653 0.500000 0.000000 0.500000
-0.561915 0.000271 0.266753 0.500000 0.000000 0.500000
-0.495910 -0.018556 -0.166314 0.300000 0.600000 0.000000
0.310689 0.012496 -0.320754 0.000000 0.500000 0.500000
-0.164538 -0.018556 0.034590 0.300000 0.600000 0.000000
0.565006 0.011367 0.507584 0.600000 0.000000 0.300000
0.456462 0.011367 0.557010 0.600000 0.000000 0.300000
-0.287087 -0.018556 -0.154662 0.300000 0.600000 0.000000
-0.061302 -0.018556 0.069694 0.300000 0.600000 0.000000
0.405517 -0.008981 -0.272829 0.000000 0.500000 0.500000
-0.031508 -0.018556 0.004394 0.300000 0.600000 0.000000
-0.258300 0.019098 0.214104 0.500000 0.000000 0.500000
-0.818788 -0.017404 -0.189695 0.300000 0.600000 0.000000
-0.610626 0.000271 0.293444 0.500000 0.000000 0.500000
0.233499 -0.028571 0.197264 0.600000 0.000000 0.300000
0.590536 -0.027977 0.451622 0.600000 0.000000 0.300000
0.094827 -0.014990 0.133911 0.300000 0.600000 0.000000
0.437686 -0.028571 0.195016 0.600000 0.000000 0.300000
-0.440901 0.019098 0.204337 0.500000 0.000000 0.500000
-0.697142 0.000271 0.306981 0.500000 0.000000 0.500000
-0.280789 0.000271 0.000023 0.300000 0.600000 0.000000
0.592783 -0.006983 -0.468682 0.000000 0.500000 0.500000
0.505329 0.012328 -0.602481 0.000000 0.500000 0.500000
0.048722 0.000271 -0.022161 0.300000 0.600000 0.000000
0.136866 0.000271 -0.170850 0.500000 0.000000 0.500000
-0.147718 0.019098 -0.000781 0.500000 0.000000 0.500000
0.179820 0.011367 0.174885 0.600000 0.000000 0.300000
-0.183740 -0.018556 -0.132800 0.300000 0.600000 0.000000
0.187335 -0.028571 0.151229 0.600000 0.000000 0.300000
-0.052960 0.000271 0.111453 0.500000 0.000000 0.500000
0.173791 0.028712 -0.478269 0.000000 0.500000 0.500000
0.280481 0.000271 0.233080 0.300000 0.600000 0.000000
0.115160 -0.009744 -0.327496 0.000000 0.500000 0.500000
-0.960095 -0.006940 -0.274173 0.300000 0.600000 0.000000
0.296811 0.011367 0.282016 0.600000 0.000000 0.300000
0.412694 -0.028571 0.196897 0.600000 0.000000 0.300000
0.356793 0.011221 0.141385 0.600000 0.000000 0.300000
0.083158 0.019098 0.022825 0.500000 0.000000 0.500000
0.524640 0.004392 0.246366 0.600000 0.000000 0.300000
-0.171810 0.000271 0.104840 0.500000 0.000000 0.500000
-0.112241 0.000271 -0.039993 0.500000 0.000000 0.500000
0.126664 0.018237 -0.437677 0.000000 0.500000 0.500000
-0.385423 0.000271 -0.052333 0.300000 0.600000 0.000000
-0.771587 -0.000502 -0.267294 0.300000 0.600000 0.000000
0.206287 0.011367 0.125372 0.600000 0.000000 0.300000
0.586492 -0.006257 -0.493792 0.000000 0.500000 0.500000
0.315392 0.011367 0.193127 0.600000 0.000000 0.300000
0.383887 0.008534 0.241527 0.600000 0.000000 0.300000
-0.743496 0.011370 0.364951 0.500000 0.000000 0.500000
-0.492474 0.000271 -0.149697 0.300000 0.600000 0.000000
0.206597 0.011367 0.157962 0.600000 0.000000 0.300000
0.351263 0.011367 0.505292 0.600000 0.000000 0.300000
0.244212 0.030194 -0.245218 0.000000 0.500000 0.500000
-0.280734 0.000271 -0.060360 0.300000 0.600000 0.000000
-0.655201 0.000271 -0.186987 0.300000 0.600000 0.000000
0.092447 -0.009744 -0.272298 0.000000 0.500000 0.500000
-0.691950 -0.018556 -0.223059 0.300000 0.600000 0.000000
0.203621 0.000271 -0.158089 0.500000 0.000000 0.500000
-0.079119 0.000271 0.092145 0.500000 0.000000 0.500000
0.515051 0.010836 0.552343 0.600000 0.000000 0.300000
-0.410127 -0.018556 -0.040228 0.300000 0.600000 0.000000
-0.576540 0.019098 0.274839 0.500000 0.000000 0.500000
-0.178513 0.000271 0.013780 0.500000 0.000000 0.500000
0.227482 -0.009744 -0.427944 0.000000 0.500000 0.500000
-0.054655 -0.018556 -0.027343 0.300000 0.600000 0.000000
-0.101868 0.000271 0.017899 0.300000 0.600000 0.000000
0.252130 0.011367 0.217586 0.600000 0.000000 0.300000
-0.218928 0.019098 0.149002 0.500000 0.000000 0.500000
0.195417 -0.018556 0.096567 0.300000 0.600000 0.000000
0.149589 -0.009744 -0.256547 0.000000 0.500000 0.500000
0.137704 -0.028571 0.155886 0.600000 0.000000 0.300000
-0.895526 -0.018556 -0.277886 0.300000 0.600000 0.000000
0.278784 0.030194 -0.285144 0.000000 0.500000 0.500000
0.424943 0.022508 -0.283884 0.000000 0.500000 0.500000
-0.520963 0.000271 -0.162814 0.300000 0.600000 0.000000
0.605167 -0.026822 0.347978 0.600000 0.000000 0.300000
0.050338 -0.018556 0.074541 0.300000 0.600000 0.000000
0.266765 0.021416 -0.381856 0.000000 0.500000 0.500000
-0.688897 0.000271 0.343705 0.500000 0.000000 0.500000
0.519075 -0.004773 -0.522479 0.000000 0.500000 0.500000
0.555258 -0.006998 -0.438632 0.000000 0.500000 0.500000
-0.579536 0.019098 0.311334 0.500000 0.000000 0.500000
-0.422039 0.019098 0.238090 0.500000 0.000000 0.500000
0.584437 0.012419 -0.339054 0.000000 0.500000 0.500000
-0.139836 -0.008101 -0.155899 0.300000 0.600000 0.000000
0.012640 -0.009685 -0.135539 0.000000 0.500000 0.500000
-0.491244 0.000271 0.132603 0.500000 0.000000 0.500000
0.644282 -0.022115 0.427105 0.600000 0.000000 0.300000
0.545141 0.011367 0.510213 0.600000 0.000000 0.300000
0.237858 0.030194 -0.424951 0.000000 0.500000 0.500000
0.324366 -0.009744 -0.232815 0.000000 0.500000 0.500000
-0.371168 0.019098 0.146434 0.500000 0.000000 0.500000
0.082437 0.019098 0.058128 0.500000 0.000000 0.500000
-0.802211 0.000271 0.311180 0.500000 0.000000 0.500000
0.266970 -0.028571 0.156921 0.600000 0.000000 0.300000
-0.591671 0.019098 0.299913 0.500000 0.000000 0.500000
0.135422 -0.028571 0.241444 0.600000 0.000000 0.300000
0.263314 -0.028571 0.197054 0.600000 0.000000 0.300000
0.069640 0.019562 -0.349185 0.000000 0.500000 0.500000
0.071142 0.019098 0.060679 0.500000 0.000000 0.500000
-0.563171 0.000271 -0.123199 0.300000 0.600000 0.000000
-0.375187 0.000271 0.150960 0.500000 0.000000 0.500000
-0.760100 0.000271 -0.241340 0.300000 0.600000 0.000000
0.209900 -0.028571 0.121591 0.600000 0.000000 0.300000
0.247558 -0.009744 -0.473623 0.000000 0.500000 0.500000
0.146607 0.000271 0.080627 0.300000 0.600000 0.000000
0.140918 0.030194 -0.417587 0.000000 0.500000 0.500000
0.185737 0.004087 0.421059 0.600000 0.000000 0.300000
-0.279189 0.000271 -0.131036 0.300000 0.600000 0.000000
-0.525078 0.019098 0.183663 0.500000 0.000000 0.500000
0.142103 0.019011 -0.457145 0.000000 0.500000 0.500000
-0.833862 -0.018556 -0.248827 0.300000 0.600000 0.000000
-0.412189 -0.018556 -0.078491 0.300000 0.600000 0.000000
0.185190 0.000271 0.164978 0.300000 0.600000 0.000000
0.476635 0.023358 -0.300637 0.000000 0.500000 0.500000
0.570409 0.010952 0.268679 0.600000 0.000000 0.300000
0.252515 -0.028571 0.426829 0.600000 0.000000 0.300000
-0.522827 0.000271 0.254510 0.500000 0.000000 0.500000
-0.065398 0.000271 0.010689 0.300000 0.600000 0.000000
0.188534 0.011367 0.309747 0.600000 0.000000 0.300000
0.136153 0.019098 -0.146025 0.500000 0.000000 0.500000
0.089229 0.000271 -0.010695 0.300000 0.600000 0.000000
-0.257863 0.019098 0.050566 0.500000 0.000000 0.500000
0.521634 0.011367 0.204608 0.600000 0.000000 0.300000
0.523429 -0.023557 0.506390 0.600000 0.000000 0.300000
-0.306516 0.000271 0.151434 0.500000 0.000000 0.500000
0.454791 -0.015077 0.231897 0.600000 0.000000 0.300000
0.353388 0.011367 0.231454 0.600000 0.000000 0.300000
-0.317977 0.000271 0.078970 0.500000 0.000000 0.500000
0.336045 0.007333 -0.617438 0.000000 0.500000 0.500000
-0.171309 0.019098 0.068878 0.500000 0.000000 0.500000
0.053385 -0.026698 0.219467 0.600000 0.000000 0.300000
0.185135 -0.002730 -0.500533 0.000000 0.500000 0.500000
-0.308639 -0.018556 -0.156081 0.300000 0.600000 0.000000
0.287715 -0.009744 -0.316215 0.000000 0.500000 0.500000
0.024283 0.022161 0.015963 0.500000 0.500000 0.000000
-0.078422 0.019098 0.086312 0.500000 0.000000 0.500000
-0.426546 -0.018556 -0.150925 0.300000 0.600000 0.000000
-0.197351 0.019098 0.049640 0.500000 0.000000 0.500000
0.249523 -0.018556 0.246282 0.300000 0.600000 0.000000
0.113283 0.030194 -0.209666 0.000000 0.500000 0.500000
-0.406593 -0.018556 -0.103903 0.300000 0.600000 0.000000
0.325092 0.002798 -0.162727 0.000000 0.500000 0.500000
0.349714 0.024246 -0.617179 0.000000 0.500000 0.500000
0.114239 0.019098 -0.144194 0.500000 0.000000 0.500000
-0.102749 -0.004872 -0.149360 0.300000 0.600000 0.000000
-0.772243 0.000271 0.324287 0.500000 0.000000 0.500000
0.524927 -0.013211 0.185872 0.600000 0.000000 0.300000
-0.135361 0.000271 0.101733 0.500000 0.000000 0.500000
-0.374158 0.000271 0.182797 0.500000 0.000000 0.500000
0.077554 0.000271 -0.102522 0.500000 0.000000 0.500000
0.024930 0.000271 0.093877 0.500000 0.000000 0.500000
0.295788 0.030085 -0.545757 0.000000 0.500000 0.500000
0.132054 0.030194 -0.156883 0.000000 0.500000 0.500000
-0.217150 0.019098 0.097625 0.500000 0.000000 0.500000
-0.200110 -0.018556 -0.035438 0.300000 0.600000 0.000000
-0.385260 0.000271 0.238383 0.500000 0.000000 0.500000
0.138199 0.000271 -0.050796 0.500000 0.000000 0.500000
0.255596 -0.028571 0.386490 0.600000 0.000000 0.300000
0.646208 0.008184 0.397359 0.600000 0.000000 0.300000
0.066763 -0.018556 0.079668 0.300000 0.600000 0.000000
-0.387048 0.019098 0.224194 0.500000 0.000000 0.500000
0.259626 0.011367 0.331175 0.600000 0.000000 0.300000
0.198123 -0.009744 -0.336840 0.000000 0.500000 0.500000
0.397034 0.030194 -0.239977 0.000000 0.500000 0.500000
0.353715 -0.008487 -0.574365 0.000000 0.500000 0.500000
0.445915 0.010866 0.218539 0.600000 0.000000 0.300000
-0.806312 0.019098 0.343396 0.500000 0.000000 0.500000
0.569346 -0.003927 -0.534706 0.000000 0.500000 0.500000
0.246885 -0.009744 -0.221773 0.000000 0.500000 0.500000
-0.631058 0.019098 0.264939 0.500000 0.000000 0.500000
-0.404433 0.019098 0.213779 0.500000 0.000000 0.500000
0.162452 -0.028571 0.146058 0.600000 0.000000 0.300000
-0.794006 0.000271 0.300456 0.500000 0.000000 0.500000
0.532736 0.030194 -0.536890 0.000000 0.500000 0.500000
0.215111 0.011367 0.276026 0.600000 0.000000 0.300000
0.554581 0.010792 -0.294763 0.000000 0.500000 0.500000
-0.195891 0.000271 0.189078 0.500000 0.000000 0.500000
-0.262509 -0.018556 0.020584 0.300000 0.600000 0.000000
0.136738 0.000271 0.148177 0.300000 0.600000 0.000000
-0.570712 -0.004678 -0.104108 0.300000 0.600000 0.000000
0.192192 0.000271 0.154412 0.300000 0.600000 0.000000
0.170312 -0.009744 -0.259517 0.000000 0.500000 0.500000
0.380369 -0.017159 0.251485 0.600000 0.000000 0.300000
-0.330308 0.000271 0.176415 0.500000 0.000000 0.500000
0.013647 0.019098 -0.096669 0.500000 0.000000 0.500000
0.445739 0.018976 -0.623848 0.000000 0.500000 0.500000
-0.703732 -0.018556 -0.183783 0.300000 0.600000 0.000000
-0.188751 0.000271 -0.124332 0.300000 0.600000 0.000000
-0.874592 -0.006967 -0.285457 0.300000 0.600000 0.000000
0.074492 0.000271 0.094611 0.300000 0.600000 0.000000
-0.221923 0.019098 0.191890 0.500000 0.000000 0.500000
0.479591 -0.028408 0.182968 0.600000 0.000000 0.300000
0.170984 0.011367 0.258170 0.600000 0.000000 0.300000
-0.609349 0.000271 -0.162874 0.300000 0.600000 0.000000
-0.103827 0.000271 -0.027057 0.500000 0.000000 0.500000
-0.844718 0.019098 0.353408 0.500000 0.000000 0.500000
0.153305 -0.009744 -0.366499 0.000000 0.500000 0.500000
-0.030999 -0.018556 0.014984 0.300000 0.600000 0.000000
0.241107 -0.028571 0.413338 0.600000 0.000000 0.300000
0.081808 0.011367 0.153149 0.600000 0.000000 0.300000
0.466520 -0.027337 0.221063 0.600000 0.000000 0.300000
0.153598 0.019098 -0.167277 0.500000 0.000000 0.500000
0.200435 0.000271 -0.209687 0.500000 0.000000 0.500000
-0.639996 0.000271 -0.228150 0.300000 0.600000 0.000000
0.080236 -0.018556 0.118703 0.300000 0.600000 0.000000
-0.626254 0.000271 -0.145278 0.300000 0.600000 0.000000
0.098326 -0.028571 0.224571 0.600000 0.000000 0.300000
0.311622 0.029224 -0.590473 0.000000 0.500000 0.500000
0.079964 0.030194 -0.325875 0.000000 0.500000 0.500000
-0.614570 -0.011983 -0.113143 0.300000 0.600000 0.000000
0.133587 0.019098 -0.130387 0.500000 0.000000 0.500000
-0.127400 0.000271 -0.088260 0.300000 0.600000 0.000000
-0.259673 0.000271 0.109609 0.500000 0.000000 0.500000
0.557967 -0.014627 0.203508 0.600000 0.000000 0.300000
0.527469 0.009959 0.550227 0.600000 0.000000 0.300000
-0.422907 -0.018556 -0.140327 0.300000 0.600000 0.000000
0.089904 0.000271 -0.065616 0.500000 0.000000 0.500000
0.279894 -0.009744 -0.284827 0.000000 0.500000 0.500000
-0.371540 -0.018556 -0.187707 0.300000 0.600000 0.000000
-0.226073 0.000271 0.075315 0.500000 0.000000 0.500000
-0.012355 0.000271 -0.005466 0.500000 0.000000 0.500000
-0.617819 0.000271 -0.154150 0.300000 0.600000 0.000000
0.224636 -0.009744 -0.462468 0.000000 0.500000 0.500000
0.191723 0.019098 -0.171269 0.500000 0.000000 0.500000
-0.074093 -0.018556 -0.003853 0.300000 0.600000 0.000000
-0.929816 -0.008652 -0.291652 0.300000 0.600000 0.000000
-0.003852 0.019708 -0.137996 0.000000 0.500000 0.500000
-0.116239 0.010661 0.171456 0.500000 0.000000 0.500000
0.548433 -0.028571 0.522578 0.600000 0.000000 0.300000
0.485929 -0.015359 0.168244 0.600000 0.000000 0.300000
-0.310685 -0.018556 -0.133766 0.300000 0.600000 0.000000
0.311531 -0.002616 0.385537 0.600000 0.000000 0.300000
0.229229 -0.009744 -0.314967 0.000000 0.500000 0.500000
-0.395648 0.000271 -0.128592 0.300000 0.600000 0.000000
0.573583 0.030194 -0.387925 0.000000 0.500000 0.500000
0.295555 0.011298 0.355265 0.600000 0.000000 0.300000
-0.323538 0.000271 -0.088758 0.300000 0.600000 0.000000
0.257154 -0.017149 0.485668 0.600000 0.000000 0.300000
0.488803 -0.013318 0.572926 0.600000 0.000000 0.300000
-0.347622 0.000271 0.088040 0.500000 0.000000 0.500000
0.582759 0.025761 -0.350212 0.000000 0.500000 0.500000
0.161791 0.008449 -0.037412 0.500000 0.000000 0.500000
-0.060387 0.019098 0.019511 0.500000 0.000000 0.500000
0.177062 -0.028571 0.174929 0.600000 0.000000 0.300000
0.294092 0.018811 -0.592502 0.000000 0.500000 0.500000
-0.293452 0.019098 0.217315 0.500000 0.000000 0.500000
0.137543 0.019098 -0.166895 0.500000 0.000000 0.500000
0.298532 -0.028571 0.477507 0.600000 0.000000 0.300000
-0.690163 0.000271 -0.180776 0.300000 0.600000 0.000000
0.113348 0.011367 0.303888 0.600000 0.000000 0.300000
-0.231500 0.000271 0.053024 0.500000 0.000000 0.500000
0.285695 -0.009744 -0.173183 0.000000 0.500000 0.500000
-0.797733 0.000271 0.380964 0.500000 0.000000 0.500000
0.138520 0.000271 0.058721 0.300000 0.600000 0.000000
-0.023561 -0.018556 -0.101675 0.300000 0.600000 0.000000
0.644962 -0.024801 0.339630 0.600000 0.000000 0.300000
0.241668 0.011367 0.356920 0.600000 0.000000 0.300000
0.164845 -0.009744 -0.453751 0.000000 0.500000 0.500000
-0.133441 0.019098 -0.033873 0.500000 0.000000 0.500000
0.525985 0.009997 -0.588804 0.000000 0.500000 0.500000
0.497658 -0.009744 -0.577977 0.000000 0.500000 0.500000
0.438474 0.011367 0.537527 0.600000 0.000000 0.300000
-0.165672 0.019098 0.129353 0.500000 0.000000 0.500000
-0.292439 0.000271 0.140159 0.500000 0.000000 0.500000
0.237450 -0.009744 -0.170794 0.000000 0.500000 0.500000
-0.212768 0.019098 0.064182 0.500000 0.000000 0.500000
-0.214991 -0.018556 -0.049633 0.300000 0.600000 0.000000
0.115068 0.000271 0.116375 0.300000 0.600000 0.000000
0.134557 -0.009744 -0.256124 0.000000 0.500000 0.500000
-0.700609 0.013211 0.256127 0.500000 0.000000 0.500000
0.144403 0.030194 -0.389403 0.000000 0.500000 0.500000
-0.047391 -0.018556 0.013552 0.300000 0.600000 0.000000
0.282186 0.011367 0.220951 0.600000 0.000000 0.300000
-0.581328 0.019098 0.219488 0.500000 0.000000 0.500000
0.198014 0.003463 -0.517649 0.000000 0.500000 0.500000
0.037437 -0.005421 0.208450 0.600000 0.000000 0.300000
0.226197 0.019098 -0.219516 0.500000 0.000000 0.500000
-0.444945 0.019098 0.215727 0.500000 0.000000 0.500000
0.238208 0.015902 -0.553106 0.000000 0.500000 0.500000
0.269436 -0.028571 0.333305 0.600000 0.000000 0.300000
-0.200314 0.019098 0.124487 0.500000 0.000000 0.500000
0.635649 0.011367 0.368973 0.600000 0.000000 0.300000
-0.693373 0.000271 -0.161493 0.300000 0.600000 0.000000
-0.665376 0.019098 0.271432 0.500000 0.000000 0.500000
-0.545445 -0.017948 -0.075306 0.300000 0.600000 0.000000
0.172144 -0.028571 0.285407 0.600000 0.000000 0.300000
0.056855 0.030194 -0.162126 0.000000 0.500000 0.500000
-0.072815 0.000271 0.051512 0.300000 0.600000 0.000000
0.586819 -0.018908 0.523632 0.600000 0.000000 0.300000
0.316119 -0.028571 0.491768 0.600000 0.000000 0.300000
0.456052 -0.009207 -0.239241 0.000000 0.500000 0.500000
0.013056 -0.018556 -0.052115 0.300000 0.600000 0.000000
0.555733 0.029732 -0.319139 0.000000 0.500000 0.500000
0.175318 -0.009744 -0.190280 0.000000 0.500000 0.500000
0.192083 0.011367 0.287748 0.600000 0.000000 0.300000
0.038395 -0.018556 -0.040882 0.300000 0.600000 0.000000
0.558100 -0.008768 0.473182 0.600000 0.000000 0.300000
-0.301725 0.000271 -0.028036 0.300000 0.600000 0.000000
0.221188 0.018547 -0.173077 0.500000 0.000000 0.500000
0.165336 0.000271 -0.165888 0.500000 0.000000 0.500000
0.100323 -0.007536 0.324435 0.600000 0.000000 0.300000
0.221939 -0.028416 0.118684 0.600000 0.000000 0.300000
-0.885992 0.019098 0.368100 0.500000 0.000000 0.500000
0.313606 -0.012277 0.399900 0.600000 0.000000 0.300000
0.589775 0.011041 0.293303 0.600000 0.000000 0.300000
-0.529882 -0.018556 -0.068858 0.300000 0.600000 0.000000
0.257443 0.030194 -0.534201 0.000000 0.500000 0.500000
0.174531 -0.018556 0.139970 0.300000 0.600000 0.000000
0.062473 -0.025259 0.244533 0.600000 0.000000 0.300000
-0.165572 0.000271 -0.025184 0.500000 0.000000 0.500000
0.311108 -0.014491 0.378367 0.600000 0.000000 0.300000
0.157147 0.030194 -0.278050 0.000000 0.500000 0.500000
-0.070956 -0.018556 -0.140173 0.300000 0.600000 0.000000
-0.436668 0.000271 -0.124006 0.300000 0.600000 0.000000
0.087038 -0.009523 -0.128551 0.000000 0.500000 0.500000
0.076133 -0.005378 -0.068608 0.300000 0.600000 0.000000
0.152671 -0.028571 0.194129 0.600000 0.000000 0.300000
0.215587 0.000271 -0.218977 0.500000 0.000000 0.500000
0.558078 -0.009592 -0.470877 0.000000 0.500000 0.500000
-0.165686 0.000271 0.030856 0.500000 0.000000 0.500000
0.256760 -0.028571 0.250208 0.600000 0.000000 0.300000
-0.495991 -0.018556 -0.211115 0.300000 0.600000 0.000000
0.122120 -0.009744 -0.236108 0.000000 0.500000 0.500000
0.071581 0.030194 -0.148720 0.000000 0.500000 0.500000
0.297095 -0.025713 0.504937 0.600000 0.000000 0.300000
-0.575251 0.000271 0.251231 0.500000 0.000000 0.500000
-0.538639 0.019098 0.272952 0.500000 0.000000 0.500000
-0.689872 -0.018556 -0.169158 0.300000 0.600000 0.000000
0.634113 0.007123 0.449929 0.600000 0.000000 0.300000
0.050329 0.010016 0.209528 0.600000 0.000000 0.300000
-0.742726 0.000271 -0.255368 0.300000 0.600000 0.000000
0.527225 0.011367 0.533124 0.600000 0.000000 0.300000
-0.402817 -0.018556 -0.059254 0.300000 0.600000 0.000000
0.141347 -0.018556 0.020079 0.300000 0.600000 0.000000
0.076637 -0.023966 0.108667 0.600000 0.000000 0.300000
-0.275639 -0.018556 0.009087 0.300000 0.600000 0.000000
-0.823704 0.000271 0.385604 0.500000 0.000000 0.500000
0.610886 0.011367 0.326850 0.600000 0.000000 0.300000
0.192384 -0.009744 -0.473721 0.000000 0.500000 0.500000
0.222794 0.011367 0.368219 0.600000 0.000000 0.300000
0.256323 0.030194 -0.492678 0.000000 0.500000 0.500000
0.201070 -0.009744 -0.285734 0.000000 0.500000 0.500000
-0.835074 0.019098 0.387648 0.500000 0.000000 0.500000
0.023012 0.026894 -0.023370 0.500000 0.500000 0.000000
0.296633 -0.028571 0.302229 0.600000 0.000000 0.300000
0.099007 0.011367 0.195487 0.600000 0.000000 0.300000
0.104690 -0.018556 0.062807 0.300000 0.600000 0.000000
0.007680 -0.007518 -0.157485 0.000000 0.500000 0.500000
0.464329 0.012498 -0.620395 0.000000 0.500000 0.500000
0.251725 0.009396 -0.260837 0.500000 0.000000 0.500000
-0.458423 0.000271 0.145736 0.500000 0.000000 0.500000
-0.153748 0.000271 -0.101601 0.300000 0.600000 0.000000
-0.857193 -0.018556 -0.204996 0.300000 0.600000 0.000000
0.551935 0.030194 -0.338464 0.000000 0.500000 0.500000
0.204270 0.008669 -0.124455 0.500000 0.000000 0.500000
0.605560 0.008681 -0.427177 0.000000 0.500000 0.500000
0.238525 -0.009744 -0.277937 0.000000 0.500000 0.500000
-0.395700 0.000271 0.130455 0.500000 0.000000 0.500000
0.028297 -0.018556 -0.064141 0.300000 0.600000 0.000000
0.067006 0.000271 0.047464 0.500000 0.000000 0.500000
0.436198 -0.015108 0.517302 0.600000 0.000000 0.300000
0.468544 0.006676 -0.300824 0.000000 0.500000 0.500000
-0.098166 0.019098 0.155570 0.500000 0.000000 0.500000
0.241912 -0.009744 -0.512440 0.000000 0.500000 0.500000
-0.286499 -0.018556 -0.003215 0.300000 0.600000 0.000000
0.016331 -0.018556 0.003898 0.300000 0.600000 0.000000
0.364378 0.030194 -0.230715 0.000000 0.500000 0.500000
0.152888 0.004942 0.384962 0.600000 0.000000 0.300000
0.607341 -0.028571 0.474540 0.600000 0.000000 0.300000
0.005898 0.000271 0.058878 0.500000 0.000000 0.500000
0.028836 -0.009744 -0.179719 0.000000 0.500000 0.500000
-0.259098 0.000271 0.003225 0.300000 0.600000 0.000000
-0.483686 -0.018556 -0.159777 0.300000 0.600000 0.000000
0.120007 0.011367 0.282633 0.600000 0.000000 0.300000
0.133821 -0.023010 0.361616 0.600000 0.000000 0.300000
-0.353070 -0.018556 -0.142960 0.300000 0.600000 0.000000
-0.902996 0.000271 0.379140 0.500000 0.000000 0.500000
0.520254 -0.028571 0.529454 0.600000 0.000000 0.300000
-0.602717 0.000271 -0.195371 0.300000 0.600000 0.000000
-0.134883 0.000271 -0.136595 0.300000 0.600000 0.000000
-0.265469 0.009546 0.005882 0.500000 0.000000 0.500000
0.095760 -0.009744 -0.134857 0.000000 0.500000 0.500000
-0.425463 0.013616 0.102259 0.500000 0.000000 0.500000
0.133497 0.000271 0.088800 0.300000 0.600000 0.000000
0.637150 0.011143 0.346798 0.600000 0.000000 0.300000
-0.202826 0.000271 0.136945 0.500000 0.000000 0.500000
0.212858 -0.018556 0.188940 0.300000 0.600000 0.000000
0.321978 0.018366 -0.546675 0.000000 0.500000 0.500000
-0.512786 0.019098 0.169178 0.500000 0.000000 0.500000
0.131484 0.000271 0.032547 0.300000 0.600000 0.000000
-0.330975 0.000271 -0.144120 0.300000 0.600000 0.000000
0.094837 -0.028478 0.283559 0.600000 0.000000 0.300000
0.604774 0.010774 -0.412862 0.000000 0.500000 0.500000
0.316263 0.018129 -0.159956 0.000000 0.500000 0.500000
-0.243933 -0.004882 -0.174255 0.300000 0.600000 0.000000
-0.434683 0.013134 0.269689 0.500000 0.000000 0.500000
0.327033 -0.028571 0.221138 0.600000 0.000000 0.300000
-0.149646 0.000271 -0.028198 0.300000 0.600000 0.000000
-0.181700 0.019098 0.054270 0.500000 0.000000 0.500000
0.035807 -0.009744 -0.218720 0.000000 0.500000 0.500000
0.056272 -0.009627 -0.287501 0.000000 0.500000 0.500000
0.241759 0.004534 0.107836 0.600000 0.000000 0.300000
-0.312317 0.000271 -0.117040 0.300000 0.600000 0.000000
0.110097 -0.028571 0.170662 0.600000 0.000000 0.300000
-0.280493 0.019098 0.136857 0.500000 0.000000 0.500000
-0.031773 0.000271 -0.073830 0.500000 0.000000 0.500000
0.213262 -0.009744 -0.259116 0.000000 0.500000 0.500000
0.249908 0.011367 0.437659 0.600000 0.000000 0.300000
-0.303318 0.000271 -0.043654 0.300000 0.600000 0.000000
-0.517664 -0.018556 -0.153937 0.300000 0.600000 0.000000
0.600841 -0.026486 0.252046 0.600000 0.000000 0.300000
-0.563647 -0.018556 -0.142559 0.300000 0.600000 0.000000
0.603517 0.007176 0.385675 0.600000 0.000000 0.300000
0.392108 0.022891 -0.193942 0.000000 0.500000 0.500000
-0.596714 0.019098 0.279492 0.500000 0.000000 0.500000
0.532743 0.024307 -0.355890 0.000000 0.500000 0.500000
0.119096 0.030194 -0.171762 0.000000 0.500000 0.500000
0.485294 -0.009744 -0.286134 0.000000 0.500000 0.500000
-0.282045 0.000271 0.020705 0.500000 0.000000 0.500000
0.126775 0.006387 -0.439334 0.000000 0.500000 0.500000
0.417387 -0.028235 0.528836 0.600000 0.000000 0.300000
0.225516 0.030194 -0.498062 0.000000 0.500000 0.500000
0.184189 0.030194 -0.276429 0.000000 0.500000 0.500000
0.107025 -0.009744 -0.357555 0.000000 0.500000 0.500000
0.141503 -0.009744 -0.295465 0.000000 0.500000 0.500000
0.341583 -0.009744 -0.276836 0.000000 0.500000 0.500000
0.309427 0.006662 0.408431 0.600000 0.000000 0.300000
0.093080 0.019098 -0.129962 0.500000 0.000000 0.500000
-0.240333 0.000271 -0.050303 0.300000 0.600000 0.000000
-0.654378 -0.018556 -0.135685 0.300000 0.600000 0.000000
-0.724126 -0.018556 -0.234038 0.300000 0.600000 0.000000
0.110827 -0.028571 0.123435 0.600000 0.000000 0.300000
0.630154 -0.027574 0.306354 0.600000 0.000000 0.300000
0.122157 0.000271 -0.012386 0.500000 0.000000 0.500000
-0.058928 0.019098 0.137712 0.500000 0.000000 0.500000
0.168459 0.011367 0.150366 0.600000 0.000000 0.300000
0.487442 0.006643 0.230298 0.600000 0.000000 0.300000
0.060411 -0.009744 -0.157885 0.000000 0.500000 0.500000
0.150662 -0.009744 -0.206594 0.000000 0.500000 0.500000
-0.332141 0.019098 0.091983 0.500000 0.000000 0.500000
0.380123 0.011367 0.531324 0.600000 0.000000 0.300000
-0.493223 0.019098 0.203315 0.500000 0.000000 0.500000
-0.801749 -0.017709 -0.182126 0.300000 0.600000 0.000000
0.172776 -0.028571 0.379935 0.600000 0.000000 0.300000
0.115391 0.030194 -0.340982 0.000000 0.500000 0.500000
-0.915781 0.000271 -0.283093 0.300000 0.600000 0.000000
0.390236 -0.013025 0.247237 0.600000 0.000000 0.300000
-0.232647 0.000271 -0.062957 0.300000 0.600000 0.000000
0.117085 -0.028571 0.189495 0.600000 0.000000 0.300000
0.159220 0.011367 0.281071 0.600000 0.000000 0.300000
0.006230 0.000271 -0.042162 0.500000 0.000000 0.500000
-0.443197 0.000271 -0.076274 0.300000 0.600000 0.000000
-0.090459 -0.018556 -0.128191 0.300000 0.600000 0.000000
-0.028289 0.016487 0.139763 0.500000 0.000000 0.500000
0.200421 0.030194 -0.303489 0.000000 0.500000 0.500000
0.270896 -0.028571 0.145681 0.600000 0.000000 0.300000
0.600266 -0.001457 -0.457947 0.000000 0.500000 0.500000
-0.658439 0.000271 -0.244276 0.300000 0.600000 0.000000
-0.261703 -0.018556 -0.062966 0.300000 0.600000 0.000000
-0.269141 0.000271 0.126214 0.500000 0.000000 0.500000
0.034650 0.000271 0.057858 0.300000 0.600000 0.000000
0.244363 0.009280 0.465522 0.600000 0.000000 0.300000
-0.275693 -0.018556 -0.044701 0.300000 0.600000 0.000000
0.219069 -0.020239 0.453100 0.600000 0.000000 0.300000
0.035210 -0.018556 0.054037 0.300000 0.600000 0.000000
0.227801 0.010192 -0.192081 0.500000 0.000000 0.500000
0.310715 -0.008706 -0.590099 0.000000 0.500000 0.500000
-0.292880 0.000271 -0.168995 0.300000 0.600000 0.000000
-0.393754 -0.000115 -0.200672 0.300000 0.600000 0.000000
-0.442738 0.000271 0.176762 0.500000 0.000000 0.500000
0.258124 -0.018556 0.207597 0.300000 0.600000 0.000000
0.154427 0.011367 0.125440 0.600000 0.000000 0.300000
0.395827 0.025318 -0.576679 0.000000 0.500000 0.500000
-0.007370 -0.018556 0.086325 0.300000 0.600000 0.000000
-0.555110 0.000271 0.295502 0.500000 0.000000 0.500000
0.087195 -0.028571 0.262436 0.600000 0.000000 0.300000
0.442864 -0.028571 0.553063 0.600000 0.000000 0.300000
0.543684 -0.007396 -0.368212 0.000000 0.500000 0.500000
-0.763889 0.018434 0.297983 0.500000 0.000000 0.500000
0.170655 0.019098 -0.121165 0.500000 0.000000 0.500000
0.161626 0.019098 -0.098468 0.500000 0.000000 0.500000
0.300537 0.011367 0.208747 0.600000 0.000000 0.300000
-0.242483 0.019098 0.092936 0.500000 0.000000 0.500000
0.153174 -0.006022 0.161518 0.300000 0.600000 0.000000
-0.501522 -0.006590 -0.073736 0.300000 0.600000 0.000000
0.209626 -0.009744 -0.406018 0.000000 0.500000 0.500000
-0.258482 0.019098 0.130260 0.500000 0.000000 0.500000
-0.744744 0.019098 0.319365 0.500000 0.000000 0.500000
0.174991 0.030194 -0.298711 0.000000 0.500000 0.500000
0.316622 -0.009744 -0.575458 0.000000 0.500000 0.500000
-0.085756 -0.018556 0.026429 0.300000 0.600000 0.000000
0.148461 -0.023588 0.377861 0.600000 0.000000 0.300000
0.434537 0.001653 0.518606 0.600000 0.000000 0.300000
0.538361 -0.006826 -0.498059 0.000000 0.500000 0.500000
0.067603 0.019098 0.016949 0.500000 0.000000 0.500000
0.495385 -0.006731 -0.308186 0.000000 0.500000 0.500000
-0.800059 -0.018556 -0.231357 0.300000 0.600000 0.000000
-0.084272 0.000271 -0.119487 0.300000 0.600000 0.000000
0.381756 0.002720 -0.627373 0.000000 0.500000 0.500000
0.544622 0.030116 -0.505817 0.000000 0.500000 0.500000
-0.683205 0.000271 0.271376 0.500000 0.000000 0.500000
0.641320 0.008934 0.419519 0.600000 0.000000 0.300000
0.176694 -0.009744 -0.362400 0.000000 0.500000 0.500000
0.046200 -0.009744 -0.219887 0.000000 0.500000 0.500000
0.555325 0.002154 0.271080 0.600000 0.000000 0.300000
0.478905 -0.009744 -0.582156 0.000000 0.500000 0.500000
-0.110389 0.000271 0.023764 0.500000 0.000000 0.500000
0.174410 0.000271 0.086855 0.300000 0.600000 0.000000
-0.887254 -0.009567 -0.287689 0.300000 0.600000 0.000000
-0.709671 -0.008821 -0.155899 0.300000 0.600000 0.000000
0.144922 -0.018556 0.036169 0.300000 0.600000 0.000000
-0.729305 -0.018556 -0.193643 0.300000 0.600000 0.000000
-0.381769 0.000271 -0.147245 0.300000 0.600000 0.000000
0.085481 -0.018556 0.008528 0.300000 0.600000 0.000000
-0.575555 0.000271 -0.222711 0.300000 0.600000 0.000000
-0.380558 -0.018556 -0.085843 0.300000 0.600000 0.000000
-0.644900 0.000271 0.305718 0.500000 0.000000 0.500000
-0.216490 0.000271 0.100830 0.500000 0.000000 0.500000
-0.273245 0.018625 0.219889 0.500000 0.000000 0.500000
-0.456483 0.014403 0.276414 0.500000 0.000000 0.500000
0.452198 -0.024042 0.160503 0.600000 0.000000 0.300000
0.251082 0.030194 -0.358060 0.000000 0.500000 0.500000
0.340559 0.005315 0.468788 0.600000 0.000000 0.300000
-0.650630 0.019098 0.315723 0.500000 0.000000 0.500000
0.209391 0.017366 -0.528334 0.000000 0.500000 0.500000
-0.609407 0.000271 -0.227426 0.300000 0.600000 0.000000
0.413243 0.024396 -0.205480 0.000000 0.500000 0.500000
-0.661557 0.000271 -0.212572 0.300000 0.600000 0.000000
0.608829 0.004813 0.252898 0.600000 0.000000 0.300000
-0.245386 0.016556 0.004621 0.500000 0.000000 0.500000
0.526894 0.003661 0.501967 0.600000 0.000000 0.300000
0.233603 -0.018556 0.208292 0.300000 0.600000 0.000000
-0.496353 -0.011334 -0.065330 0.300000 0.600000 0.000000
0.129773 0.000271 0.121185 0.300000 0.600000 0.000000
0.201214 -0.028571 0.167784 0.600000 0.000000 0.300000
-0.129221 0.019098 0.005116 0.500000 0.000000 0.500000
0.129340 0.011367 0.320058 0.600000 0.000000 0.300000
0.534339 0.021841 -0.493962 0.000000 0.500000 0.500000
-0.139601 0.019098 0.167919 0.500000 0.000000 0.500000
0.037148 0.013805 0.017209 0.500000 0.500000 0.000000
0.653259 0.002060 0.370989 0.600000 0.000000 0.300000
0.142583 0.000024 0.156340 0.300000 0.600000 0.000000
0.046789 0.013479 -0.306970 0.000000 0.500000 0.500000
-0.232992 0.000271 -0.041348 0.300000 0.600000 0.000000
0.447231 -0.009210 -0.277859 0.000000 0.500000 0.500000
-0.753962 0.000271 -0.195602 0.300000 0.600000 0.000000
-0.424783 -0.009723 -0.038036 0.300000 0.600000 0.000000
-0.233684 -0.018556 0.031658 0.300000 0.600000 0.000000
0.304019 0.027275 -0.163386 0.000000 0.500000 0.500000
0.482752 -0.021012 0.231732 0.600000 0.000000 0.300000
0.199377 -0.018556 0.151918 0.300000 0.600000 0.000000
0.059596 -0.018556 -0.051913 0.300000 0.600000 0.000000
-0.523612 0.000271 0.195531 0.500000 0.000000 0.500000
0.601403 -0.011449 0.238056 0.600000 0.000000 0.300000
0.333910 -0.016575 0.453889 0.600000 0.000000 0.300000
-0.529229 0.000271 0.176416 0.500000 0.000000 0.500000
0.238727 -0.028571 0.376021 0.600000 0.000000 0.300000
0.404281 0.016674 -0.629071 0.000000 0.500000 0.500000
0.315799 0.030194 -0.290932 0.000000 0.500000 0.500000
0.563165 0.011367 0.229619 0.600000 0.000000 0.300000
0.618070 -0.028571 0.365762 0.600000 0.000000 0.300000
-0.099293 0.019098 0.040269 0.500000 0.000000 0.500000
0.362230 -0.024595 0.257098 0.600000 0.000000 0.300000
0.166917 0.019098 -0.146668 0.500000 0.000000 0.500000
-0.154853 0.000271 -0.115450 0.300000 0.600000 0.000000
0.408689 0.011367 0.194474 0.600000 0.000000 0.300000
0.229784 0.030194 -0.202260 0.000000 0.500000 0.500000
0.317120 -0.026202 0.310558 0.600000 0.000000 0.300000
0.380991 -0.028571 0.170104 0.600000 0.000000 0.300000
-0.629819 0.000271 0.236186 0.500000 0.000000 0.500000
-0.171866 -0.018556 -0.036749 0.300000 0.600000 0.000000
0.147656 -0.009744 -0.375572 0.000000 0.500000 0.500000
0.264329 0.011367 0.366588 0.600000 0.000000 0.300000
-0.473056 0.000271 0.204885 0.500000 0.000000 0.500000
-0.143467 0.000271 -0.100171 0.300000 0.600000 0.000000
0.132960 -0.009744 -0.144908 0.000000 0.500000 0.500000
0.264174 0.029037 -0.363102 0.000000 0.500000 0.500000
0.493579 -0.028571 0.553609 0.600000 0.000000 0.300000
0.070484 0.019098 -0.080733 0.500000 0.000000 0.500000
0.097158 0.000271 0.123791 0.300000 0.600000 0.000000
0.566407 -0.027887 0.526172 0.600000 0.000000 0.300000
0.123555 -0.028571 0.150580 0.600000 0.000000 0.300000
0.111357 0.007653 0.327367 0.600000 0.000000 0.300000
-0.502772 -0.018556 -0.136904 0.300000 0.600000 0.000000
-0.305862 0.019098 0.226827 0.500000 0.000000 0.500000
0.547170 0.025874 -0.472023 0.000000 0.500000 0.500000
0.086617 0.000271 0.127793 0.300000 0.600000 0.000000
-0.379357 -0.018556 -0.017940 0.300000 0.600000 0.000000
0.104071 0.000271 -0.131447 0.500000 0.000000 0.500000
-0.143744 0.000271 -0.142547 0.300000 0.600000 0.000000
0.055844 -0.018556 0.047792 0.300000 0.600000 0.000000
0.416112 -0.011444 0.141211 0.600000 0.000000 0.300000
0.063120 0.000271 -0.128991 0.500000 0.000000 0.500000
0.640938 -0.028040 0.360089 0.600000 0.000000 0.300000
-0.811210 -0.018556 -0.245095 0.300000 0.600000 0.000000
0.436558 -0.028571 0.176667 0.600000 0.000000 0.300000
0.080888 0.029474 -0.346147 0.000000 0.500000 0.500000
0.121261 0.000271 -0.119826 0.500000 0.000000 0.500000
0.156662 0.030194 -0.427116 0.000000 0.500000 0.500000
-0.004530 0.000271 -0.106303 0.300000 0.600000 0.000000
0.038284 0.000271 -0.005636 0.300000 0.600000 0.000000
0.008563 -0.018556 0.056163 0.300000 0.600000 0.000000
-0.854194 0.000271 -0.226254 0.300000 0.600000 0.000000
-0.923600 0.000271 -0.259065 0.300000 0.600000 0.000000
-0.250673 0.019098 0.167828 0.500000 0.000000 0.500000
-0.114519 0.019098 0.072573 0.500000 0.000000 0.500000
0.005103 0.000271 0.040256 0.500000 0.000000 0.500000
-0.391035 0.019098 0.106558 0.500000 0.000000 0.500000
-0.909618 0.008010 0.398105 0.500000 0.000000 0.500000
0.182479 0.030194 -0.411346 0.000000 0.500000 0.500000
-0.556713 -0.016544 -0.082262 0.300000 0.600000 0.000000
0.217007 0.011367 0.196649 0.600000 0.000000 0.300000
-0.024674 -0.018556 -0.012981 0.300000 0.600000 0.000000
0.160760 0.000271 -0.131537 0.500000 0.000000 0.500000
0.563201 -0.028571 0.503194 0.600000 0.000000 0.300000
0.214377 -0.009744 -0.483114 0.000000 0.500000 0.500000
-0.205682 0.019098 0.013505 0.500000 0.000000 0.500000
-0.070294 0.014805 0.157283 0.500000 0.000000 0.500000
-0.001970 0.019098 0.020933 0.500000 0.000000 0.500000
-0.738712 -0.012896 -0.163012 0.300000 0.600000 0.000000
0.253250 0.011367 0.248406 0.600000 0.000000 0.300000
0.381900 -0.008474 -0.198072 0.000000 0.500000 0.500000
0.283177 0.008466 0.117597 0.600000 0.000000 0.300000
0.240024 -0.028571 0.145015 0.600000 0.000000 0.300000
0.315178 -0.013145 0.525992 0.600000 0.000000 0.300000
0.180588 -0.009744 -0.383457 0.000000 0.500000 0.500000
0.533663 0.000801 -0.276642 0.000000 0.500000 0.500000
-0.326654 0.000271 0.123797 0.500000 0.000000 0.500000
-0.034873 -0.018556 -0.039533 0.300000 0.600000 0.000000
-0.432462 -0.018556 -0.130034 0.300000 0.600000 0.000000
-0.146167 0.019098 0.048287 0.500000 0.000000 0.500000
0.600312 -0.003343 -0.447415 0.000000 0.500000 0.500000
0.093917 -0.018556 0.119168 0.300000 0.600000 0.000000
-0.441353 0.000271 0.241549 0.500000 0.000000 0.500000
-0.864910 0.000271 -0.282780 0.300000 0.600000 0.000000
-0.576222 0.000271 -0.175449 0.300000 0.600000 0.000000
-0.000691 0.000425 -0.154371 0.000000 0.500000 0.500000
0.024248 0.019098 -0.037205 0.500000 0.000000 0.500000
-0.558799 0.019098 0.209742 0.500000 0.000000 0.500000
0.213545 -0.009744 -0.315589 0.000000 0.500000 0.500000
-0.345523 -0.018556 -0.010557 0.300000 0.600000 0.000000
0.060681 0.011367 0.170671 0.600000 0.000000 0.300000
-0.182108 0.000271 0.042828 0.500000 0.000000 0.500000
-0.352924 0.000271 -0.180085 0.300000 0.600000 0.000000
0.171118 0.000271 0.145163 0.300000 0.600000 0.000000
0.196256 0.011367 0.244675 0.600000 0.000000 0.300000
0.455214 -0.028571 0.207581 0.600000 0.000000 0.300000
-0.679312 -0.008937 -0.143406 0.300000 0.600000 0.000000
-0.161055 -0.018556 -0.068088 0.300000 0.600000 0.000000
-0.637822 0.019098 0.295687 0.500000 0.000000 0.500000
0.637626 -0.019804 0.451874 0.600000 0.000000 0.300000
-0.379940 0.019098 0.184880 0.500000 0.000000 0.500000
-0.406344 0.000271 -0.113166 0.300000 0.600000 0.000000
0.622236 -0.027689 0.461045 0.600000 0.000000 0.300000
-0.784750 -0.018556 -0.268000 0.300000 0.600000 0.000000
0.019006 0.016527 -0.111283 0.500000 0.000000 0.500000
-0.730851 0.000271 -0.212000 0.300000 0.600000 0.000000
0.279752 -0.028571 0.375119 0.600000 0.000000 0.300000
0.587440 0.030119 -0.413378 0.000000 0.500000 0.500000
0.044769 -0.018556 0.019076 0.300000 0.600000 0.000000
0.349385 -0.009744 -0.228959 0.000000 0.500000 0.500000
-0.410252 0.000271 -0.096805 0.300000 0.600000 0.000000
0.111408 0.030194 -0.291449 0.000000 0.500000 0.500000
-0.377373 -0.011884 -0.197784 0.300000 0.600000 0.000000
-0.094514 -0.012330 0.068353 0.300000 0.600000 0.000000
0.032187 0.033576 -0.007564 0.500000 0.500000 0.000000
-0.617684 0.000271 0.254659 0.500000 0.000000 0.500000
-0.728796 0.019098 0.287415 0.500000 0.000000 0.500000
0.285317 -0.010998 0.234326 0.300000 0.600000 0.000000
0.583875 -0.004590 -0.506795 0.000000 0.500000 0.500000
-0.074764 -0.018556 -0.088088 0.300000 0.600000 0.000000
0.029198 -0.009744 -0.201851 0.000000 0.500000 0.500000
-0.115953 0.000271 0.122255 0.500000 0.000000 0.500000
0.575150 -0.011226 0.535937 0.600000 0.000000 0.300000
0.405932 0.013839 -0.196480 0.000000 0.500000 0.500000
0.227656 0.030194 -0.257581 0.000000 0.500000 0.500000
0.291973 0.030194 -0.253462 0.000000 0.500000 0.500000
-0.458375 0.019098 0.221839 0.500000 0.000000 0.500000
-0.668700 -0.018556 -0.158146 0.300000 0.600000 0.000000
0.026419 -0.009744 -0.162427 0.000000 0.500000 0.500000
0.083974 0.000271 0.031148 0.300000 0.600000 0.000000
0.109991 -0.007880 -0.041056 0.300000 0.600000 0.000000
0.554994 -0.028571 0.244409 0.600000 0.000000 0.300000
-0.859593 0.000549 0.329267 0.500000 0.000000 0.500000
-0.651729 0.000271 -0.162914 0.300000 0.600000 0.000000
-0.248309 -0.018556 -0.027616 0.300000 0.600000 0.000000
-0.293947 0.019098 0.163750 0.500000 0.000000 0.500000
0.604467 -0.028449 0.429700 0.600000 0.000000 0.300000
0.211044 -0.009744 -0.199529 0.000000 0.500000 0.500000
0.504047 0.030134 -0.274063 0.000000 0.500000 0.500000
0.296686 -0.009744 -0.215561 0.000000 0.500000 0.500000
0.226756 0.030194 -0.187045 0.000000 0.500000 0.500000
0.054055 -0.006184 0.105174 0.600000 0.000000 0.300000
0.090029 0.000271 0.116940 0.300000 0.600000 0.000000
-0.603109 0.019098 0.302545 0.500000 0.000000 0.500000
0.163243 -0.009744 -0.419798 0.000000 0.500000 0.500000
0.566391 -0.009744 -0.430560 0.000000 0.500000 0.500000
-0.759944 0.007693 0.282660 0.500000 0.000000 0.500000
0.045989 0.019098 0.004352 0.500000 0.000000 0.500000
-0.008579 0.000271 0.044895 0.500000 0.000000 0.500000
0.377455 -0.016924 0.496924 0.600000 0.000000 0.300000
0.105821 -0.009744 -0.152699 0.000000 0.500000 0.500000
0.298755 -0.028571 0.491063 0.600000 0.000000 0.300000
-0.203137 -0.009726 0.046049 0.300000 0.600000 0.000000
-0.337590 0.000271 -0.050489 0.300000 0.600000 0.000000
-0.812668 0.019098 0.385136 0.500000 0.000000 0.500000
0.051236 -0.018556 -0.006677 0.300000 0.600000 0.000000
0.504338 -0.008376 -0.545783 0.000000 0.500000 0.500000
-0.242892 0.000271 -0.019924 0.300000 0.600000 0.000000
-0.939401 -0.018556 -0.276529 0.300000 0.600000 0.000000
0.257922 0.000271 0.226861 0.300000 0.600000 0.000000
0.159381 0.000271 -0.195119 0.500000 0.000000 0.500000
-0.759646 0.000271 0.297671 0.500000 0.000000 0.500000
0.212840 0.011367 0.331617 0.600000 0.000000 0.300000
0.246159 0.011367 0.291327 0.600000 0.000000 0.300000
0.208849 0.030194 -0.206433 0.000000 0.500000 0.500000
-0.332630 0.011140 0.046228 0.500000 0.000000 0.500000
-0.388170 -0.018556 -0.125732 0.300000 0.600000 0.000000
0.074208 0.030194 -0.197081 0.000000 0.500000 0.500000
-0.318481 -0.018556 -0.149254 0.300000 0.600000 0.000000
0.052389 0.019098 -0.113285 0.500000 0.000000 0.500000
0.134591 -0.008712 -0.128892 0.000000 0.500000 0.500000
0.291188 -0.009744 -0.253495 0.000000 0.500000 0.500000
-0.367939 0.000271 -0.033419 0.300000 0.600000 0.000000
0.510472 0.018718 -0.259012 0.000000 0.500000 0.500000
-0.727072 0.008323 0.359885 0.500000 0.000000 0.500000
0.120099 0.011367 0.175404 0.600000 0.000000 0.300000
-0.310400 0.000271 0.098074 0.500000 0.000000 0.500000
0.534700 0.011034 0.239041 0.600000 0.000000 0.300000
-0.909451 0.001316 0.358717 0.500000 0.000000 0.500000
0.283117 0.030194 -0.185266 0.000000 0.500000 0.500000
-0.609538 0.019098 0.264583 0.500000 0.000000 0.500000
-0.543188 0.000271 0.282833 0.500000 0.000000 0.500000
0.177942 0.030194 -0.341499 0.000000 0.500000 0.500000
0.166797 0.000271 0.093236 0.300000 0.600000 0.000000
0.002341 0.008498 0.122350 0.500000 0.000000 0.500000
0.115134 0.000271 -0.111569 0.500000 0.000000 0.500000
-0.229463 -0.018556 -0.166101 0.300000 0.600000 0.000000
-0.086743 0.000271 0.005009 0.500000 0.000000 0.500000
-0.615018 0.000271 -0.140964 0.300000 0.600000 0.000000
0.411950 0.007178 0.564912 0.600000 0.000000 0.300000
-0.182817 0.000271 -0.015901 0.300000 0.600000 0.000000
-0.600699 0.015026 0.202296 0.500000 0.000000 0.500000
-0.036406 -0.018556 -0.127486 0.300000 0.600000 0.000000
0.230362 -0.028571 0.287808 0.600000 0.000000 0.300000
0.093050 0.000346 -0.153572 0.500000 0.000000 0.500000
-0.195546 0.019098 0.068185 0.500000 0.000000 0.500000
0.274332 -0.001219 0.108792 0.600000 0.000000 0.300000
-0.143291 0.000271 -0.018369 0.300000 0.600000 0.000000
-0.041001 0.019098 0.140088 0.500000 0.000000 0.500000
0.175766 -0.028571 0.265269 0.600000 0.000000 0.300000
0.276570 -0.012304 0.108442 0.600000 0.000000 0.300000
0.323887 0.010572 0.129673 0.600000 0.000000 0.300000
-0.189023 -0.018556 0.005016 0.300000 0.600000 0.000000
-0.137980 0.000271 0.136173 0.500000 0.000000 0.500000
0.081058 0.000271 0.087283 0.300000 0.600000 0.000000
0.299229 0.028356 -0.317118 0.000000 0.500000 0.500000
0.153599 -0.009744 -0.432034 0.000000 0.500000 0.500000
0.589241 -0.028571 0.497179 0.600000 0.000000 0.300000
0.187610 -0.009744 -0.269552 0.000000 0.500000 0.500000
0.492232 0.011367 0.194219 0.600000 0.000000 0.300000
-0.256723 0.000271 0.058484 0.500000 0.000000 0.500000
0.034423 0.019098 0.097289 0.500000 0.000000 0.500000
0.032221 -0.008288 0.108105 0.600000 0.000000 0.300000
0.209108 -0.028571 0.300240 0.600000 0.000000 0.300000
-0.784117 0.000271 0.362377 0.500000 0.000000 0.500000
-0.146041 -0.018556 -0.143256 0.300000 0.600000 0.000000
0.504854 0.030087 -0.582551 0.000000 0.500000 0.500000
0.334889 -0.002933 0.454134 0.600000 0.000000 0.300000
-0.330564 -0.018556 -0.156402 0.300000 0.600000 0.000000
0.303182 0.009674 0.123249 0.600000 0.000000 0.300000
0.220612 -0.002377 0.457548 0.600000 0.000000 0.300000
-0.198155 0.000271 -0.153807 0.300000 0.600000 0.000000
0.489579 0.000577 -0.545333 0.000000 0.500000 0.500000
-0.187023 0.000271 0.056546 0.500000 0.000000 0.500000
0.188468 0.030194 -0.314381 0.000000 0.500000 0.500000
-0.781539 -0.018556 -0.182764 0.300000 0.600000 0.000000
0.335567 0.030194 -0.185792 0.000000 0.500000 0.500000
0.152062 0.011367 0.186363 0.600000 0.000000 0.300000
-0.449800 0.000271 0.106399 0.500000 0.000000 0.500000
0.038745 0.001441 0.097660 0.500000 0.000000 0.500000
-0.901147 0.019098 0.394940 0.500000 0.000000 0.500000
0.129440 0.011367 0.193407 0.600000 0.000000 0.300000
0.318936 -0.009744 -0.284772 0.000000 0.500000 0.500000
0.479645 -0.010297 0.574767 0.600000 0.000000 0.300000
-0.392195 0.000271 0.183567 0.500000 0.000000 0.500000
0.088996 0.030194 -0.166515 0.000000 0.500000 0.500000
0.055039 0.011367 0.192504 0.600000 0.000000 0.300000
0.246156 -0.018556 0.163320 0.300000 0.600000 0.000000
0.243967 0.028400 -0.147490 0.000000 0.500000 0.500000
-0.005470 -0.018556 -0.070111 0.300000 0.600000 0.000000
-0.171801 0.000271 -0.006804 0.500000 0.000000 0.500000
0.296158 -0.000678 -0.525214 0.000000 0.500000 0.500000
0.272947 -0.009744 -0.246407 0.000000 0.500000 0.500000
-0.128612 0.019098 -0.014613 0.500000 0.000000 0.500000
-0.310659 0.000271 -0.162212 0.300000 0.600000 0.000000
-0.397241 -0.018556 -0.091734 0.300000 0.600000 0.000000
0.147055 -0.009744 -0.413602 0.000000 0.500000 0.500000
-0.488533 0.000271 0.199925 0.500000 0.000000 0.500000
0.213241 -0.009744 -0.355385 0.000000 0.500000 0.500000
0.183746 0.019098 -0.217871 0.500000 0.000000 0.500000
0.437109 -0.028434 0.166266 0.600000 0.000000 0.300000
0.015392 0.019098 -0.048234 0.500000 0.000000 0.500000
0.140617 -0.018407 0.155379 0.300000 0.600000 0.000000
-0.035988 0.019098 0.029994 0.500000 0.000000 0.500000
-0.084032 0.019098 -0.031112 0.500000 0.000000 0.500000
0.122578 0.011367 0.211840 0.600000 0.000000 0.300000
-0.410349 0.000271 0.125084 0.500000 0.000000 0.500000
-0.223863 0.000271 0.189651 0.500000 0.000000 0.500000
0.107019 0.030194 -0.248803 0.000000 0.500000 0.500000
0.262340 0.024746 -0.469382 0.000000 0.500000 0.500000
