ply
format ascii 1.0
element vertex 1265
property float x
property float y
property float z
property uchar red
property uchar green
property uchar blue
end_header
0.155746 -0.018556 0.116119 76 153 0
-0.793773 -0.018556 -0.190851 76 153 0
-0.029466 0.019098 0.093700 127 0 127
0.221768 -0.028571 0.352504 153 0 76
-0.290542 -0.018556 -0.097343 76 153 0
-0.181823 0.016252 0.191688 127 0 127
-0.058854 0.000271 -0.081501 76 153 0
-0.136007 0.019098 0.111117 127 0 127
-0.536637 0.000271 0.299981 127 0 127
-0.132702 0.000271 0.160266 127 0 127
0.006930 -0.007588 -0.129284 0 127 127
0.211764 0.011367 0.165328 153 0 76
0.233162 0.011367 0.421355 153 0 76
0.053813 0.011367 0.146549 153 0 76
-0.689255 0.000271 0.251872 127 0 127
0.156406 0.000271 -0.098584 127 0 127
0.155144 0.029973 -0.135419 0 127 127
-0.633364 0.000271 -0.224922 76 153 0
0.369580 0.013090 -0.289912 0 127 127
-0.737123 -0.018556 -0.239970 76 153 0
-0.170477 -0.018556 -0.027400 76 153 0
0.496562 -0.009744 -0.582273 0 127 127
0.341810 -0.006639 -0.565685 0 127 127
0.205562 -0.028571 0.277364 153 0 76
0.230525 -0.009744 -0.341804 0 127 127
0.060841 -0.006680 -0.318260 0 127 127
0.286630 -0.028571 0.448365 153 0 76
-0.303573 -0.018556 -0.179458 76 153 0
0.353491 -0.028571 0.507772 153 0 76
0.008136 -0.005468 -0.172404 0 127 127
-0.414330 0.019098 0.110108 127 0 127
0.625126 -0.028571 0.346885 153 0 76
-0.545329 -0.018556 -0.212554 76 153 0
-0.454246 0.000271 -0.159739 76 153 0
0.121329 -0.023790 0.343241 153 0 76
-0.034378 -0.018556 0.016091 76 153 0
0.488058 -0.028571 0.206201 153 0 76
-0.764186 0.000271 0.299066 127 0 127
-0.461113 0.019098 0.198259 127 0 127
0.412408 0.004352 -0.571456 0 127 127
0.284726 -0.018556 0.242903 76 153 0
0.295388 -0.028571 0.243823 153 0 76
0.580472 -0.002492 0.443414 153 0 76
0.276540 -0.028571 0.424516 153 0 76
-0.514369 -0.018556 -0.119178 76 153 0
-0.622472 0.000271 -0.141206 76 153 0
-0.504358 0.004576 0.291183 127 0 127
-0.686443 -0.018556 -0.210321 76 153 0
0.116258 0.000271 -0.022426 127 0 127
-0.403365 -0.018556 -0.031165 76 153 0
0.302022 -0.009744 -0.269816 0 127 127
-0.283472 -0.018556 -0.070291 76 153 0
0.160129 0.000271 0.034578 76 153 0
0.121686 0.011406 0.018460 127 0 127
0.321660 -0.006884 0.322344 153 0 76
0.045810 0.030194 -0.212777 0 127 127
0.188800 0.030194 -0.436471 0 127 127
-0.147167 -0.018556 -0.110861 76 153 0
0.082645 -0.005744 -0.118895 127 0 127
0.168679 -0.013765 0.408424 153 0 76
0.091874 0.030194 -0.247165 0 127 127
-0.290336 -0.018556 -0.034489 76 153 0
0.637913 -0.015945 0.455193 153 0 76
-0.532176 -0.018556 -0.168525 76 153 0
-0.466947 0.019098 0.277936 127 0 127
0.417700 -0.009744 -0.593514 0 127 127
0.406856 -0.027185 0.150131 153 0 76
0.214344 0.019098 -0.266347 127 0 127
-0.378896 0.000271 0.132289 127 0 127
-0.132611 -0.018556 -0.081217 76 153 0
0.140975 -0.009744 -0.324636 0 127 127
-0.205052 -0.018556 -0.017359 76 153 0
0.252701 -0.028571 0.405239 153 0 76
-0.255940 0.000271 0.152790 127 0 127
0.344267 0.006274 0.474299 153 0 76
-0.861258 -0.006027 -0.283105 76 153 0
0.110409 -0.018556 0.114150 76 153 0
0.613141 -0.023243 0.260464 153 0 76
0.324949 -0.009744 -0.254856 0 127 127
0.171757 0.019098 -0.179741 127 0 127
-0.683086 -0.015233 -0.136865 76 153 0
0.374850 0.005054 -0.182446 0 127 127
0.165986 -0.009744 -0.281627 0 127 127
0.227344 0.030194 -0.489904 0 127 127
0.623110 -0.026783 0.464347 153 0 76
0.464348 -0.009744 -0.277358 0 127 127
0.310608 0.000447 0.387224 153 0 76
-0.634132 -0.018556 -0.155018 76 153 0
-0.371845 0.000271 -0.170674 76 153 0
-0.443893 0.019098 0.156698 127 0 127
0.127425 -0.007951 -0.126209 0 127 127
-0.780523 0.000271 0.361013 127 0 127
0.579613 -0.028571 0.487662 153 0 76
-0.127375 0.019098 0.128055 127 0 127
0.593689 0.023785 -0.481985 0 127 127
0.513115 0.015204 -0.259608 0 127 127
-0.214745 0.019098 0.056659 127 0 127
-0.614841 -0.018556 -0.183582 76 153 0
0.095839 -0.028571 0.178765 153 0 76
0.155838 0.030194 -0.355958 0 127 127
0.306572 0.026521 -0.542400 0 127 127
0.052120 0.013007 -0.110962 0 127 127
-0.219831 0.019098 0.103741 127 0 127
0.423085 0.011367 0.189089 153 0 76
-0.234976 0.019098 0.193087 127 0 127
0.083545 -0.028571 0.258716 153 0 76
0.262829 -0.009744 -0.515883 0 127 127
0.294850 0.030194 -0.228179 0 127 127
0.199538 0.000271 -0.233117 127 0 127
-0.902475 -0.018556 -0.288075 76 153 0
0.248683 -0.013112 0.104786 153 0 76
0.250404 0.011367 0.135306 153 0 76
0.267711 0.011367 0.385799 153 0 76
0.116383 -0.028571 0.308611 153 0 76
-0.445475 0.019098 0.245845 127 0 127
-0.409210 0.000271 -0.060025 76 153 0
0.057177 -0.009744 -0.133558 0 127 127
0.168701 -0.018556 0.124652 76 153 0
0.189187 -0.028571 0.139316 153 0 76
0.441968 -0.008277 -0.279265 0 127 127
0.444514 0.010619 -0.216421 0 127 127
-0.294999 0.000271 0.213121 127 0 127
0.194860 -0.028571 0.246994 153 0 76
-0.321597 -0.018556 -0.095474 76 153 0
0.226473 0.011367 0.348297 153 0 76
0.151917 -0.028571 0.193076 153 0 76
0.533917 0.006753 -0.488760 0 127 127
-0.394434 0.000271 -0.047230 76 153 0
0.264042 -0.028571 0.346957 153 0 76
0.174395 0.019098 -0.162558 127 0 127
0.277897 -0.028571 0.282955 153 0 76
-0.192123 0.000271 0.164234 127 0 127
0.036871 0.009729 -0.285109 0 127 127
-0.322222 0.019098 0.061779 127 0 127
0.256508 0.025093 -0.437648 0 127 127
0.397526 0.010214 -0.192400 0 127 127
0.117120 0.030194 -0.262918 0 127 127
0.389525 0.030194 -0.259170 0 127 127
-0.539114 0.019098 0.195370 127 0 127
0.206305 0.011367 0.407103 153 0 76
-0.192591 0.000271 -0.124554 76 153 0
0.405799 0.004842 -0.629268 0 127 127
-0.421459 0.000271 -0.192829 76 153 0
-0.337771 -0.018556 -0.068485 76 153 0
0.586382 -0.007954 0.526797 153 0 76
-0.279969 0.019098 0.100086 127 0 127
-0.741967 0.000271 0.339626 127 0 127
0.014144 -0.006038 -0.107863 76 153 0
-0.567894 0.000271 -0.124149 76 153 0
-0.857526 0.000271 0.380942 127 0 127
0.204168 -0.003621 0.189742 76 153 0
-0.315469 0.019098 0.079965 127 0 127
0.333388 -0.009865 0.451164 153 0 76
0.537477 -0.027615 0.205645 153 0 76
0.336882 -0.028002 0.272054 153 0 76
0.292002 0.011367 0.400157 153 0 76
0.150540 0.030194 -0.298900 0 127 127
0.497951 -0.026991 0.560373 153 0 76
0.133491 -0.028571 0.310142 153 0 76
0.260298 -0.026785 0.476692 153 0 76
0.078714 -0.009744 -0.249992 0 127 127
-0.030447 0.016902 0.140835 127 0 127
0.351520 -0.007094 -0.181499 0 127 127
-0.096449 0.000271 -0.006988 127 0 127
-0.096535 0.000271 -0.093131 76 153 0
-0.406226 0.000271 0.088659 127 0 127
0.164621 0.019098 -0.071935 127 0 127
-0.751357 0.000271 -0.221083 76 153 0
0.251652 0.030194 -0.358106 0 127 127
-0.425197 0.000271 0.168244 127 0 127
0.297668 0.011367 0.217092 153 0 76
0.267578 -0.000946 0.258281 76 153 0
-0.160868 0.019098 0.172589 127 0 127
0.073469 0.019098 -0.123217 127 0 127
0.461522 0.011367 0.542570 153 0 76
0.594728 0.026640 -0.393376 0 127 127
-0.385110 -0.018556 -0.142515 76 153 0
-0.150707 0.000271 -0.093755 76 153 0
0.051759 0.012326 0.087292 127 0 127
0.123108 0.000271 -0.154506 127 0 127
-0.297850 0.000271 0.166409 127 0 127
0.224691 0.030194 -0.227898 0 127 127
0.337907 0.025499 -0.611892 0 127 127
0.631865 0.011367 0.387289 153 0 76
-0.167243 -0.018556 -0.103661 76 153 0
0.557575 -0.009744 -0.517538 0 127 127
-0.496577 0.019098 0.219252 127 0 127
0.255776 -0.028571 0.209526 153 0 76
-0.452445 0.000271 0.266622 127 0 127
-0.947275 -0.018556 -0.281411 76 153 0
0.080127 -0.009744 -0.224752 0 127 127
0.296104 0.004186 0.509775 153 0 76
-0.293297 0.000271 -0.174633 76 153 0
0.030004 -0.018556 0.036967 76 153 0
0.160600 0.013783 -0.479921 0 127 127
0.352729 0.014503 -0.173017 0 127 127
0.519352 0.015805 -0.513815 0 127 127
-0.191958 0.019098 0.104479 127 0 127
0.315805 0.011367 0.238460 153 0 76
0.221085 -0.028571 0.163952 153 0 76
-0.076009 -0.007839 0.073036 76 153 0
0.628930 0.011367 0.419196 153 0 76
-0.499224 -0.018556 -0.072913 76 153 0
-0.096981 0.019098 0.030442 127 0 127
0.464392 0.000343 0.574557 153 0 76
0.588736 0.011367 0.484707 153 0 76
-0.547625 0.000271 -0.100502 76 153 0
-0.062060 -0.018556 0.024600 76 153 0
-0.156209 -0.018556 0.019443 76 153 0
0.492172 0.021979 -0.248767 0 127 127
0.363970 0.006094 0.492258 153 0 76
-0.001226 0.019098 -0.059743 127 0 127
-0.735669 0.000271 -0.210285 76 153 0
0.311076 -0.015567 0.367846 153 0 76
0.415207 -0.009744 -0.237104 0 127 127
-0.478309 0.000271 -0.201525 76 153 0
0.304177 0.029707 -0.169695 0 127 127
0.136401 0.030194 -0.375877 0 127 127
-0.507948 0.000271 -0.153226 76 153 0
-0.206128 0.000271 0.000981 127 0 127
0.203996 -0.018556 0.129875 76 153 0
0.096702 0.011367 0.174476 153 0 76
0.176129 0.011367 0.256917 153 0 76
-0.355908 -0.018556 -0.161387 76 153 0
0.095427 0.011367 0.222358 153 0 76
0.229561 0.000271 0.200928 76 153 0
0.208800 0.019098 -0.233867 127 0 127
0.205499 -0.009744 -0.350583 0 127 127
0.126748 0.011367 0.285746 153 0 76
0.571393 -0.017922 0.290567 153 0 76
0.529905 -0.009744 -0.553596 0 127 127
0.160186 -0.009744 -0.411146 0 127 127
-0.413800 -0.018556 -0.076554 76 153 0
0.593863 0.003173 0.234456 153 0 76
-0.124148 0.000271 -0.124620 76 153 0
-0.248704 -0.018556 -0.002084 76 153 0
0.056875 0.000271 -0.122109 127 0 127
0.147867 -0.028571 0.347839 153 0 76
0.632487 0.011367 0.348063 153 0 76
0.281612 0.013893 -0.147443 0 127 127
0.382707 0.018453 -0.186967 0 127 127
-0.647287 0.019098 0.294052 127 0 127
0.087742 -0.018556 -0.031951 76 153 0
0.282918 0.011367 0.454608 153 0 76
0.149561 0.011367 0.264774 153 0 76
-0.197929 -0.004835 -0.166143 76 153 0
0.477203 0.017105 -0.552144 0 127 127
-0.272910 -0.018556 -0.056097 76 153 0
-0.399203 0.014689 0.258745 127 0 127
0.132516 -0.028571 0.194543 153 0 76
-0.385064 0.000271 -0.126661 76 153 0
0.488075 -0.028571 0.534202 153 0 76
-0.053319 -0.018556 -0.030501 76 153 0
-0.077995 0.019098 0.098317 127 0 127
0.478276 0.020750 -0.303825 0 127 127
0.096058 0.019098 -0.129273 127 0 127
0.411527 0.011367 0.199032 153 0 76
-0.102073 0.000271 0.127965 127 0 127
0.098580 0.000271 -0.035876 76 153 0
-0.459683 0.019098 0.142465 127 0 127
0.220617 -0.009744 -0.275480 0 127 127
0.284996 -0.028571 0.393223 153 0 76
-0.381954 -0.003140 -0.029046 76 153 0
0.080513 -0.021047 0.286541 153 0 76
-0.034584 0.019098 0.068892 127 0 127
-0.436005 0.000271 0.111817 127 0 127
-0.647459 0.019098 0.322166 127 0 127
0.378746 0.022961 -0.284331 0 127 127
-0.594176 0.019098 0.304776 127 0 127
-0.209693 0.000271 0.107169 127 0 127
-0.496892 -0.018556 -0.113840 76 153 0
0.108789 0.000271 -0.010158 76 153 0
0.508454 0.010474 0.555704 153 0 76
-0.783924 0.000271 -0.244432 76 153 0
-0.817973 0.011721 0.320147 127 0 127
-0.161446 0.019098 -0.006696 127 0 127
0.309806 -0.026723 0.425506 153 0 76
0.164640 -0.028571 0.289859 153 0 76
0.239677 -0.009744 -0.237130 0 127 127
-0.261488 0.019098 0.119270 127 0 127
-0.017223 -0.018556 0.066699 76 153 0
0.238379 0.030194 -0.422531 0 127 127
0.414658 -0.022561 0.233250 153 0 76
0.151426 0.000271 -0.164905 127 0 127
0.654865 -0.013553 0.386185 153 0 76
0.221049 0.011367 0.143251 153 0 76
-0.110493 -0.018556 -0.038827 76 153 0
-0.446250 -0.009504 -0.047176 76 153 0
-0.491954 -0.018556 -0.155543 76 153 0
0.230697 -0.028571 0.296006 153 0 76
0.007858 -0.018556 0.013839 76 153 0
0.023112 0.019098 0.065173 127 0 127
-0.376853 0.000271 0.160126 127 0 127
0.588814 -0.025529 0.236764 153 0 76
-0.178096 0.016487 -0.028737 127 0 127
0.613757 -0.028571 0.304258 153 0 76
0.063304 -0.018556 0.106212 153 0 76
-0.402327 0.000271 -0.172741 76 153 0
-0.200971 0.000271 -0.029654 76 153 0
0.085584 0.030194 -0.215652 0 127 127
-0.427515 -0.018556 -0.192044 76 153 0
-0.452798 -0.018556 -0.130830 76 153 0
-0.337556 -0.018556 -0.025641 76 153 0
-0.003092 -0.008562 -0.116784 76 153 0
-0.382928 0.000271 -0.183945 76 153 0
-0.714261 -0.018556 -0.166421 76 153 0
0.175660 0.002133 -0.061223 127 0 127
-0.726674 0.000271 -0.236705 76 153 0
-0.688755 -0.018556 -0.162666 76 153 0
0.253221 -0.009744 -0.336842 0 127 127
0.264602 0.015429 -0.397386 0 127 127
0.308521 0.006883 0.344947 153 0 76
0.611614 -0.028571 0.424808 153 0 76
0.136228 -0.009744 -0.284046 0 127 127
0.270722 -0.028571 0.375478 153 0 76
0.470589 -0.009744 -0.586120 0 127 127
-0.496510 0.019098 0.274717 127 0 127
0.219120 0.030194 -0.192814 0 127 127
-0.517268 -0.018556 -0.190512 76 153 0
0.326374 -0.019105 0.443084 153 0 76
0.342624 0.011367 0.147132 153 0 76
0.429135 -0.019364 0.518152 153 0 76
0.129244 0.000271 -0.046304 127 0 127
0.540923 -0.006520 0.193475 153 0 76
0.393496 0.009314 0.144231 153 0 76
-0.420989 0.000271 -0.173690 76 153 0
0.613150 0.011367 0.336746 153 0 76
0.643114 0.000654 0.439400 153 0 76
0.565909 0.019180 -0.545734 0 127 127
0.177827 -0.009744 -0.261438 0 127 127
0.053884 0.019098 -0.078767 127 0 127
0.120573 -0.009744 -0.201258 0 127 127
-0.564656 -0.015592 -0.230806 76 153 0
0.208188 -0.009744 -0.437981 0 127 127
0.358518 -0.009617 -0.275556 0 127 127
0.243194 0.019098 -0.241963 127 0 127
0.542475 0.017218 -0.467273 0 127 127
-0.138096 0.000271 -0.073439 76 153 0
0.500968 0.029205 -0.307224 0 127 127
-0.266877 0.000271 -0.017128 76 153 0
0.075350 -0.028571 0.192538 153 0 76
-0.105856 -0.018556 0.006054 76 153 0
0.223116 -0.028571 0.399032 153 0 76
-0.338815 0.000271 -0.132176 76 153 0
0.118411 -0.018556 0.131159 76 153 0
-0.080668 0.000271 0.098862 127 0 127
0.582978 -0.009744 -0.440445 0 127 127
0.181502 0.007923 -0.502370 0 127 127
0.053040 0.011367 0.131363 153 0 76
-0.203911 -0.018556 -0.067926 76 153 0
0.124089 0.011367 0.214469 153 0 76
0.291025 -0.028571 0.330759 153 0 76
0.243108 0.011367 0.365933 153 0 76
0.251525 -0.028571 0.225823 153 0 76
-0.260251 0.013643 0.008838 127 0 127
0.641598 -0.004126 0.302566 153 0 76
-0.226882 0.000271 0.202823 127 0 127
0.249305 -0.028571 0.263635 153 0 76
0.472618 -0.027298 0.221907 153 0 76
0.186235 -0.009744 -0.162771 0 127 127
0.371268 0.011367 0.229176 153 0 76
0.177990 0.011367 0.319747 153 0 76
0.164427 -0.009393 -0.461573 0 127 127
0.125233 0.030194 -0.154277 0 127 127
-0.308967 0.000271 -0.099097 76 153 0
-0.706248 0.000271 -0.250100 76 153 0
0.135895 0.000271 -0.093227 127 0 127
-0.698737 -0.018556 -0.193564 76 153 0
0.326037 0.011367 0.169156 153 0 76
-0.724873 -0.018556 -0.207282 76 153 0
-0.646585 0.000271 0.262734 127 0 127
-0.172778 0.000271 -0.021966 127 0 127
-0.216502 0.019098 0.131674 127 0 127
-0.172472 0.000271 -0.042623 76 153 0
0.225714 -0.028571 0.323683 153 0 76
-0.264319 -0.007904 0.025591 76 153 0
0.261098 0.030194 -0.162596 0 127 127
-0.009728 0.019098 -0.040885 127 0 127
0.047977 0.000271 0.018119 76 153 0
0.050200 0.008486 0.113941 153 0 76
0.127694 -0.028571 0.266459 153 0 76
0.072558 0.000271 0.022414 127 0 127
0.108938 0.011048 0.309101 153 0 76
0.504854 -0.009199 -0.270180 0 127 127
-0.309951 0.019098 0.136319 127 0 127
-0.070716 0.019098 0.121532 127 0 127
-0.706146 -0.018556 -0.222891 76 153 0
0.532052 -0.028571 0.234227 153 0 76
0.405739 0.010978 0.153504 153 0 76
-0.228837 -0.018556 0.024473 76 153 0
-0.207490 -0.018018 -0.167828 76 153 0
-0.133968 0.000271 -0.102776 76 153 0
-0.953498 -0.018556 -0.255633 76 153 0
-0.450779 0.000271 0.218724 127 0 127
0.084269 0.030194 -0.193606 0 127 127
-0.186674 0.000271 0.022333 127 0 127
-0.750591 0.019098 0.298910 127 0 127
-0.348900 0.000271 -0.044371 76 153 0
0.136747 -0.017151 0.153486 76 153 0
-0.114472 0.000271 0.059512 76 153 0
-0.573881 0.000271 0.188461 127 0 127
0.049950 0.029955 -0.274314 0 127 127
0.372751 0.026708 -0.619428 0 127 127
-0.250525 -0.018556 -0.163744 76 153 0
-0.918137 -0.007668 -0.242083 76 153 0
-0.894725 -0.018556 -0.264392 76 153 0
0.134190 0.000271 -0.000965 76 153 0
-0.771958 0.019098 0.360794 127 0 127
0.361986 -0.026672 0.540412 153 0 76
-0.683889 0.000271 -0.171823 76 153 0
0.053702 0.019098 -0.129550 127 0 127
0.428862 -0.000679 0.233644 153 0 76
0.160630 0.030194 -0.206257 0 127 127
-0.166409 0.000271 0.039244 127 0 127
0.158834 -0.028571 0.143500 153 0 76
0.327930 0.030194 -0.246600 0 127 127
0.636443 -0.025481 0.439175 153 0 76
-0.284554 0.000271 0.116400 127 0 127
-0.724342 0.000271 0.354863 127 0 127
-0.049545 0.019098 0.026620 127 0 127
0.103993 0.030194 -0.343036 0 127 127
-0.941195 0.000271 -0.274215 76 153 0
0.303982 0.010679 0.416034 153 0 76
0.153600 -0.009744 -0.355760 0 127 127
0.165845 -0.018556 0.043562 76 153 0
-0.686775 0.000271 -0.199923 76 153 0
0.283847 -0.001673 0.246619 76 153 0
-0.284341 -0.018556 0.020062 76 153 0
0.383752 -0.004689 -0.281662 0 127 127
0.383347 0.030194 -0.246099 0 127 127
-0.095051 -0.018556 -0.021897 76 153 0
0.265872 0.017081 -0.465676 0 127 127
0.602617 0.008724 0.405785 153 0 76
0.173394 0.012048 -0.122069 0 127 127
0.064363 0.000271 -0.039255 127 0 127
-0.153439 0.000271 -0.003275 76 153 0
0.244737 -0.009744 -0.182796 0 127 127
-0.549087 -0.018556 -0.155784 76 153 0
0.430872 0.030194 -0.605206 0 127 127
0.461157 0.011761 -0.297414 0 127 127
-0.702327 0.019098 0.264309 127 0 127
0.180065 0.030194 -0.180578 0 127 127
-0.841917 -0.018556 -0.249013 76 153 0
0.141043 -0.022055 0.371200 153 0 76
0.124966 0.023665 -0.430362 0 127 127
-0.428378 0.019098 0.230039 127 0 127
0.105367 -0.028571 0.271636 153 0 76
-0.098536 -0.018556 -0.059294 76 153 0
0.113426 0.001250 -0.166832 127 0 127
0.607672 -0.023719 0.496233 153 0 76
0.378021 -0.010812 0.495792 153 0 76
-0.289161 -0.018556 -0.119874 76 153 0
0.034271 0.030194 -0.190838 0 127 127
0.033187 -0.018450 -0.097137 76 153 0
-0.024302 0.000271 0.116198 127 0 127
-0.616036 0.000271 0.295596 127 0 127
0.011557 -0.018556 -0.002056 76 153 0
0.490343 -0.002307 0.513981 153 0 76
0.136922 0.005631 0.104191 76 153 0
-0.405076 0.000271 0.070390 127 0 127
0.233840 -0.018556 0.161647 76 153 0
-0.181850 -0.018556 -0.073254 76 153 0
0.282821 0.025672 -0.342188 0 127 127
0.030078 -0.009027 -0.228491 0 127 127
0.182325 -0.009744 -0.145937 0 127 127
0.108548 0.011276 0.117648 153 0 76
-0.071682 -0.018556 -0.128042 76 153 0
0.549813 -0.009744 -0.503198 0 127 127
0.256419 0.003287 -0.566864 0 127 127
0.131664 0.000271 0.085150 76 153 0
0.558562 0.008207 0.266350 153 0 76
0.430629 -0.028571 0.551245 153 0 76
0.185514 0.000271 -0.176783 127 0 127
0.633098 -0.022982 0.294465 153 0 76
-0.678573 0.013240 0.344924 127 0 127
-0.285574 0.000271 0.201869 127 0 127
0.229216 0.011367 0.303835 153 0 76
0.136158 0.030194 -0.406771 0 127 127
0.245210 -0.018556 0.212806 76 153 0
0.460760 -0.028571 0.538153 153 0 76
0.056461 -0.018556 0.048583 76 153 0
0.035182 0.000271 -0.031593 76 153 0
0.435017 -0.016280 0.148573 153 0 76
0.206927 0.030194 -0.261930 0 127 127
-0.329998 -0.018556 -0.187394 76 153 0
-0.688515 0.000271 0.294076 127 0 127
-0.118414 0.019098 0.024339 127 0 127
0.080148 0.000271 0.091432 76 153 0
-0.553648 0.011009 0.170982 127 0 127
-0.155725 -0.018556 0.040284 76 153 0
-0.576459 0.000271 0.247265 127 0 127
-0.322321 0.000271 0.164268 127 0 127
0.182555 0.030166 -0.141568 0 127 127
0.552586 0.030194 -0.494234 0 127 127
0.320169 -0.009744 -0.574648 0 127 127
0.084377 -0.018556 0.061677 76 153 0
0.198119 0.030194 -0.385440 0 127 127
-0.399305 -0.018556 -0.063673 76 153 0
-0.559904 0.000271 0.233228 127 0 127
0.208754 0.000271 -0.165566 127 0 127
0.508099 -0.008321 -0.314585 0 127 127
-0.803879 0.013386 0.383578 127 0 127
-0.604922 0.000271 0.245662 127 0 127
-0.898659 0.011060 0.364603 127 0 127
-0.310281 0.000271 0.123233 127 0 127
-0.672639 -0.018556 -0.185500 76 153 0
0.598806 -0.018739 0.365463 153 0 76
0.283281 0.030194 -0.248166 0 127 127
0.282860 -0.009744 -0.291012 0 127 127
0.212919 -0.018556 0.179182 76 153 0
-0.012747 0.000271 -0.087277 127 0 127
-0.158220 0.019098 -0.024002 127 0 127
-0.231812 0.000271 -0.093653 76 153 0
0.276247 -0.009744 -0.314732 0 127 127
-0.121919 0.019098 -0.009744 127 0 127
0.359359 -0.003879 0.482159 153 0 76
-0.465784 -0.018556 -0.110911 76 153 0
0.013397 -0.008866 0.146794 153 0 76
-0.476608 0.000271 0.135908 127 0 127
0.292026 0.009356 0.120527 153 0 76
0.100753 -0.009744 -0.243670 0 127 127
-0.488589 0.000271 0.267350 127 0 127
-0.192858 -0.018556 -0.045219 76 153 0
-0.416893 0.019098 0.153218 127 0 127
0.149866 0.013320 -0.191490 127 0 127
0.070591 0.030194 -0.284310 0 127 127
0.269129 0.011367 0.234984 153 0 76
0.562086 0.015211 -0.304352 0 127 127
-0.239322 0.019098 0.064932 127 0 127
-0.553619 0.000271 0.190570 127 0 127
-0.395719 -0.018556 -0.120841 76 153 0
-0.146360 -0.018556 -0.127928 76 153 0
-0.642392 0.019098 0.269002 127 0 127
-0.623605 0.000271 0.241874 127 0 127
-0.212090 0.019098 0.170473 127 0 127
0.390740 -0.009744 -0.595066 0 127 127
0.026096 0.035707 -0.010709 127 127 0
0.223430 0.026484 -0.139352 0 127 127
0.331230 0.028126 -0.174659 0 127 127
0.104563 0.012412 0.038040 127 0 127
0.526667 -0.022676 0.557734 153 0 76
0.230450 0.019098 -0.206400 127 0 127
0.475977 0.006533 0.522230 153 0 76
0.169553 0.011367 0.272819 153 0 76
-0.378820 0.000271 -0.056138 76 153 0
-0.893546 -0.004684 -0.235504 76 153 0
0.356630 0.026191 -0.181630 0 127 127
-0.260368 0.019098 0.183933 127 0 127
0.140300 -0.009744 -0.187427 0 127 127
0.358656 -0.028571 0.525563 153 0 76
-0.376471 0.019098 0.186411 127 0 127
0.247629 0.007777 -0.249068 127 0 127
0.650875 0.004998 0.364848 153 0 76
-0.481726 0.000271 -0.132361 76 153 0
-0.380902 0.019098 0.100886 127 0 127
0.582817 0.000042 0.309648 153 0 76
-0.054355 0.019098 0.100767 127 0 127
0.014927 -0.017063 0.125483 153 0 76
0.176748 0.030194 -0.283120 0 127 127
0.222876 0.000271 -0.187917 127 0 127
-0.054835 0.019098 0.052327 127 0 127
0.040225 0.005311 0.096481 127 0 127
-0.033831 0.019098 0.027550 127 0 127
0.028631 -0.009744 -0.176023 0 127 127
0.156853 0.030194 -0.180744 0 127 127
-0.143569 0.000271 0.176736 127 0 127
-0.532495 0.009328 0.156837 127 0 127
-0.420270 0.008000 0.265243 127 0 127
0.208252 -0.004916 0.080585 76 153 0
-0.622891 0.007691 0.205683 127 0 127
0.014528 0.019098 0.021844 127 127 0
0.354361 0.009971 0.535050 153 0 76
-0.882172 0.000271 0.358288 127 0 127
-0.412164 -0.018556 -0.186198 76 153 0
-0.170307 0.000271 0.024594 127 0 127
-0.114209 0.000271 -0.040822 127 0 127
-0.015948 0.019098 0.036126 127 0 127
-0.687280 -0.006682 -0.149250 76 153 0
0.062373 0.019098 -0.017107 127 0 127
0.040253 0.019098 -0.011352 127 127 0
0.120938 -0.028571 0.239575 153 0 76
0.163199 0.000271 0.128616 76 153 0
-0.040979 -0.018556 0.031064 76 153 0
0.409526 -0.028514 0.553221 153 0 76
-0.252991 0.019098 0.038995 127 0 127
0.138845 -0.028571 0.128686 153 0 76
-0.447845 -0.018556 -0.154589 76 153 0
-0.523532 0.000271 -0.162550 76 153 0
0.051828 -0.009744 -0.218110 0 127 127
0.309048 0.008285 -0.322159 0 127 127
-0.146968 0.000271 -0.048035 76 153 0
-0.359072 -0.018556 -0.044202 76 153 0
-0.581920 0.019098 0.259626 127 0 127
0.620165 -0.028571 0.438614 153 0 76
-0.329751 0.019098 0.094703 127 0 127
0.109566 0.011367 0.266260 153 0 76
0.083787 -0.018556 0.004419 76 153 0
0.096536 -0.018556 -0.006540 76 153 0
-0.209654 0.000271 0.141610 127 0 127
-0.001556 -0.018556 -0.045892 76 153 0
0.136784 -0.018556 0.047084 76 153 0
-0.139324 0.019098 0.149430 127 0 127
-0.296806 0.019098 0.126090 127 0 127
0.286217 0.030194 -0.201961 0 127 127
-0.123516 0.019098 0.065805 127 0 127
0.108641 -0.028571 0.129746 153 0 76
0.264290 -0.018556 0.245513 76 153 0
0.161294 -0.009744 -0.189673 0 127 127
-0.254254 0.000271 -0.102656 76 153 0
-0.175445 -0.018556 -0.058547 76 153 0
-0.869839 0.004918 0.340915 127 0 127
0.101720 -0.018556 0.081932 76 153 0
-0.695708 0.000271 0.344199 127 0 127
0.170353 0.030194 -0.156532 0 127 127
0.199900 0.018318 -0.518720 0 127 127
0.098210 0.019098 -0.066474 127 0 127
0.046010 -0.018556 -0.043222 76 153 0
0.261748 0.030194 -0.347710 0 127 127
0.052105 -0.009918 -0.085590 76 153 0
-0.870251 0.019098 0.369077 127 0 127
0.092438 -0.028571 0.211186 153 0 76
0.110559 0.000271 -0.065048 127 0 127
0.286070 -0.009744 -0.219627 0 127 127
-0.289863 0.003004 0.225016 127 0 127
-0.461957 -0.018248 -0.212698 76 153 0
0.325800 -0.009744 -0.226079 0 127 127
0.232255 0.030194 -0.465080 0 127 127
0.284334 0.029090 -0.526226 0 127 127
-0.190973 -0.018556 -0.145913 76 153 0
0.376172 -0.013774 0.557718 153 0 76
0.468571 0.028699 -0.568454 0 127 127
-0.799762 -0.018556 -0.217259 76 153 0
0.298622 0.027237 -0.320727 0 127 127
0.018433 0.019098 0.079921 127 0 127
-0.282838 0.019098 0.162398 127 0 127
-0.766042 0.019098 0.337785 127 0 127
0.514086 0.008772 0.514297 153 0 76
0.425196 0.011367 0.167907 153 0 76
0.036433 -0.009085 0.206560 153 0 76
0.591571 -0.005093 -0.373909 0 127 127
-0.693145 0.019098 0.321947 127 0 127
0.140425 0.011367 0.120926 153 0 76
0.144000 0.011367 0.199986 153 0 76
-0.281949 0.000271 -0.097165 76 153 0
0.591474 -0.003408 -0.489289 0 127 127
-0.766695 0.000271 -0.190196 76 153 0
-0.342142 -0.005649 -0.009528 76 153 0
-0.242941 0.000271 -0.043900 76 153 0
-0.872251 -0.013090 -0.285044 76 153 0
0.254437 0.011367 0.264407 153 0 76
0.511155 -0.009744 -0.289690 0 127 127
0.253118 0.030038 -0.479480 0 127 127
-0.020261 0.000271 0.012203 127 0 127
0.328429 0.001685 0.446608 153 0 76
0.219834 0.000271 -0.251146 127 0 127
0.171520 0.000271 0.115707 76 153 0
0.229905 -0.009720 -0.523517 0 127 127
0.096768 0.028599 -0.377823 0 127 127
0.080957 0.019098 0.015305 127 0 127
0.546394 0.010761 -0.443127 0 127 127
-0.117344 -0.018556 0.018263 76 153 0
0.134013 0.000271 0.026352 76 153 0
-0.141707 -0.018556 -0.091577 76 153 0
0.236795 0.000271 -0.248602 127 0 127
0.458949 -0.004961 -0.231685 0 127 127
-0.112091 -0.018556 0.044748 76 153 0
-0.250156 -0.009512 0.033633 76 153 0
0.493017 -0.004868 -0.547710 0 127 127
0.352005 -0.028571 0.169861 153 0 76
-0.809649 0.000271 0.366786 127 0 127
-0.707726 0.000271 0.311206 127 0 127
-0.813338 0.019098 0.375112 127 0 127
-0.026955 0.000271 -0.011270 76 153 0
0.434291 -0.006904 -0.618819 0 127 127
-0.261650 0.000271 -0.090809 76 153 0
-0.242971 0.000271 0.050059 127 0 127
-0.104577 0.019098 0.092816 127 0 127
0.211885 0.030194 -0.429366 0 127 127
-0.667361 0.019098 0.254957 127 0 127
-0.512872 0.019098 0.195160 127 0 127
0.140517 -0.028571 0.221675 153 0 76
-0.074009 0.019098 0.033999 127 0 127
-0.817848 -0.018556 -0.208165 76 153 0
0.023634 -0.018556 -0.082957 76 153 0
0.189525 0.030194 -0.239925 0 127 127
-0.835037 0.000271 0.342096 127 0 127
0.233567 0.011367 0.226709 153 0 76
0.242741 0.018676 -0.555812 0 127 127
-0.599241 0.019098 0.209789 127 0 127
-0.364332 0.000271 0.062303 127 0 127
-0.067697 -0.018556 -0.052329 76 153 0
0.166177 0.030194 -0.235568 0 127 127
0.330621 0.028629 -0.293653 0 127 127
-0.026760 0.000271 -0.043870 127 0 127
0.129267 0.030194 -0.274187 0 127 127
-0.038030 -0.018556 0.073263 76 153 0
0.032347 0.009441 0.167968 153 0 76
0.036884 0.029930 -0.240849 0 127 127
-0.119819 0.000271 -0.058061 76 153 0
-0.355629 0.019098 0.215062 127 0 127
0.561529 -0.009327 -0.437661 0 127 127
0.078953 -0.009744 -0.305427 0 127 127
0.443335 -0.009744 -0.596047 0 127 127
0.616256 0.009582 0.274079 153 0 76
0.428199 -0.005121 0.145140 153 0 76
0.281861 -0.028571 0.461822 153 0 76
-0.328873 0.007852 0.237049 127 0 127
0.238845 0.030194 -0.317735 0 127 127
0.316592 -0.010807 0.527126 153 0 76
-0.579914 0.000271 0.208815 127 0 127
-0.158043 0.005895 0.184352 127 0 127
0.036912 -0.001759 -0.276473 0 127 127
0.412531 -0.003991 0.238416 153 0 76
-0.607943 0.019098 0.231218 127 0 127
0.094039 -0.009217 -0.367797 0 127 127
0.135004 0.030194 -0.242463 0 127 127
-0.338837 0.000271 0.155247 127 0 127
0.233531 -0.005895 -0.540534 0 127 127
0.264086 0.030194 -0.188039 0 127 127
-0.373208 0.016827 0.076877 127 0 127
0.216375 -0.027433 0.438600 153 0 76
-0.177121 0.000271 0.123182 127 0 127
-0.596875 -0.006304 -0.112888 76 153 0
0.211672 0.009129 0.110285 153 0 76
-0.162448 0.000271 0.125949 127 0 127
-0.126973 0.019098 0.158733 127 0 127
-0.468158 0.000271 -0.120992 76 153 0
-0.551446 0.018435 0.305708 127 0 127
0.185712 -0.018556 0.067592 76 153 0
-0.557890 0.019098 0.236864 127 0 127
0.251386 -0.017678 0.165762 76 153 0
0.094146 0.019098 -0.025770 127 0 127
-0.234651 0.000271 0.156809 127 0 127
-0.450961 -0.018556 -0.203413 76 153 0
-0.393201 -0.018556 -0.170203 76 153 0
-0.291705 -0.018556 -0.164564 76 153 0
-0.610475 0.000271 0.186797 127 0 127
0.006721 0.000271 -0.064683 76 153 0
-0.825024 -0.018556 -0.254218 76 153 0
-0.301388 -0.018556 -0.048030 76 153 0
-0.275861 0.019098 0.114073 127 0 127
0.362497 0.011367 0.167475 153 0 76
0.611880 0.011232 0.470602 153 0 76
-0.086873 0.000271 -0.038614 127 0 127
0.632779 0.011367 0.370787 153 0 76
-0.231768 -0.018556 -0.064074 76 153 0
0.292533 -0.028571 0.347926 153 0 76
-0.741919 0.000271 0.284127 127 0 127
0.362183 0.003088 0.548482 153 0 76
-0.667512 0.010380 0.234098 127 0 127
0.202338 -0.028571 0.151887 153 0 76
-0.614742 -0.009250 -0.116757 76 153 0
0.106961 0.000271 0.031567 76 153 0
0.373369 -0.004491 -0.573227 0 127 127
-0.592902 0.001339 0.178546 127 0 127
0.120785 0.030194 -0.192393 0 127 127
-0.240148 0.000434 0.209680 127 0 127
0.155557 0.030194 -0.151166 0 127 127
-0.406251 0.000271 0.146783 127 0 127
0.274890 0.011367 0.276996 153 0 76
0.192440 -0.020258 0.428982 153 0 76
0.057937 0.000271 0.074289 127 0 127
0.591657 0.011367 0.279688 153 0 76
0.060157 0.006116 0.245553 153 0 76
0.323911 0.009982 0.128226 153 0 76
-0.705571 -0.005448 -0.158115 76 153 0
-0.620120 0.000271 -0.162547 76 153 0
0.382812 -0.009744 -0.236058 0 127 127
0.595341 -0.028571 0.281793 153 0 76
0.116545 -0.028571 0.227285 153 0 76
-0.418646 0.019098 0.248511 127 0 127
-0.478583 -0.009444 -0.060576 76 153 0
0.068860 0.019098 -0.138351 127 0 127
0.106242 -0.009744 -0.317877 0 127 127
0.218890 -0.009744 -0.319290 0 127 127
0.267639 0.011367 0.251488 153 0 76
0.276254 0.000445 -0.147681 0 127 127
-0.263035 0.000271 -0.143556 76 153 0
0.150910 0.011367 0.305180 153 0 76
0.610933 0.006685 0.491538 153 0 76
-0.036849 -0.011146 0.084475 76 153 0
0.514258 0.028322 -0.534787 0 127 127
-0.709650 0.000271 -0.216459 76 153 0
0.160006 -0.016645 0.010924 76 153 0
-0.544256 0.000271 0.256660 127 0 127
-0.287762 0.000271 0.025260 127 0 127
-0.045360 -0.018556 -0.016712 76 153 0
0.270997 -0.028571 0.223163 153 0 76
0.493287 -0.021734 0.233596 153 0 76
-0.666918 0.000271 0.307403 127 0 127
-0.039349 0.000271 0.052281 127 0 127
0.086303 -0.009744 -0.331056 0 127 127
0.307433 0.030194 -0.251624 0 127 127
-0.332674 0.019098 0.181405 127 0 127
-0.899472 0.019098 0.388614 127 0 127
-0.319681 -0.018556 -0.146251 76 153 0
0.553934 -0.006969 -0.406476 0 127 127
0.485495 0.022849 -0.608617 0 127 127
0.189164 0.000271 0.115335 76 153 0
0.157780 -0.028571 0.236188 153 0 76
0.023275 0.034832 0.012306 127 127 0
0.151090 0.000271 -0.052877 127 0 127
0.557070 0.028416 -0.417224 0 127 127
-0.316322 -0.005624 -0.187018 76 153 0
0.427599 -0.028571 0.183027 153 0 76
0.244576 0.000271 0.176067 76 153 0
0.294299 -0.009514 -0.313798 0 127 127
-0.845877 0.000271 0.386686 127 0 127
0.460662 0.011367 0.193176 153 0 76
0.177179 -0.018556 0.164729 76 153 0
0.084455 0.019098 0.041223 127 0 127
0.252688 -0.009744 -0.158503 0 127 127
-0.015214 0.019098 0.117904 127 0 127
0.207531 -0.009744 -0.184576 0 127 127
0.017952 0.000271 -0.017159 127 0 127
-0.182907 -0.018556 -0.133238 76 153 0
-0.096207 -0.018556 -0.117931 76 153 0
0.239160 -0.028571 0.333901 153 0 76
0.292767 -0.028571 0.230164 153 0 76
0.362287 -0.002256 0.126045 153 0 76
0.262598 0.030194 -0.318456 0 127 127
0.234099 -0.028308 0.119033 153 0 76
-0.358002 0.000271 0.153615 127 0 127
0.223315 0.019098 -0.289995 127 0 127
-0.056357 0.000271 0.121332 127 0 127
0.059864 0.000271 -0.091599 127 0 127
0.360159 -0.007295 -0.615498 0 127 127
-0.095527 0.000271 0.014623 127 0 127
-0.242417 -0.018556 -0.106902 76 153 0
0.257053 0.010104 0.117127 153 0 76
-0.401909 0.019098 0.217794 127 0 127
0.193087 0.030194 -0.169677 0 127 127
0.259858 -0.001463 -0.144155 0 127 127
-0.186411 -0.018556 -0.003190 76 153 0
-0.079430 0.000271 0.037070 127 0 127
-0.027274 -0.018556 -0.040027 76 153 0
-0.568016 0.000271 0.294622 127 0 127
0.476200 -0.023847 0.522332 153 0 76
0.229076 0.011367 0.335120 153 0 76
0.052488 -0.007165 -0.298971 0 127 127
0.537750 -0.005380 -0.361858 0 127 127
-0.492456 0.000271 0.195243 127 0 127
-0.137854 -0.018556 -0.069379 76 153 0
0.255068 0.030194 -0.250106 0 127 127
0.204989 -0.009744 -0.226763 0 127 127
0.071575 0.000271 -0.132309 127 0 127
0.547551 0.028953 -0.370674 0 127 127
0.607686 -0.027384 0.354067 153 0 76
0.153911 -0.006057 -0.126132 0 127 127
0.240033 -0.018556 0.194256 76 153 0
-0.873555 0.000271 0.392779 127 0 127
0.395046 0.009860 0.517205 153 0 76
0.536211 0.010506 0.507446 153 0 76
-0.260182 -0.018556 -0.079026 76 153 0
0.182192 -0.028571 0.239462 153 0 76
0.221140 0.030194 -0.171571 0 127 127
0.092739 0.005784 -0.390936 0 127 127
0.198369 0.000271 -0.185308 127 0 127
-0.043335 0.000271 -0.120238 76 153 0
-0.475118 0.000271 -0.146178 76 153 0
0.546809 0.027895 -0.481125 0 127 127
0.235464 0.006535 0.108994 153 0 76
0.312609 -0.027771 0.311268 153 0 76
0.315259 0.030194 -0.269298 0 127 127
0.204843 -0.003427 -0.132290 0 127 127
-0.324415 -0.018556 -0.006586 76 153 0
-0.063037 0.000271 -0.033603 76 153 0
0.173771 -0.028571 0.156378 153 0 76
0.064851 -0.004922 -0.332201 0 127 127
0.188913 -0.018556 0.093415 76 153 0
0.387293 -0.028571 0.219045 153 0 76
-0.036851 0.000271 -0.069508 127 0 127
0.627007 -0.028571 0.318793 153 0 76
-0.580897 0.000271 0.314115 127 0 127
0.073835 0.019098 0.051106 127 0 127
0.371107 -0.006698 0.259296 153 0 76
-0.172253 -0.006044 -0.161615 76 153 0
-0.343481 0.000271 -0.024123 76 153 0
-0.185155 0.019098 0.136273 127 0 127
0.236279 -0.028571 0.172895 153 0 76
0.588321 0.029802 -0.456565 0 127 127
0.011443 0.036833 -0.010148 127 127 0
0.160778 0.030180 -0.453607 0 127 127
0.148192 0.011367 0.142856 153 0 76
0.138181 -0.028571 0.329487 153 0 76
0.201205 0.030194 -0.290233 0 127 127
0.305697 -0.028571 0.452253 153 0 76
-0.790941 0.019098 0.340098 127 0 127
0.248783 -0.009143 -0.440597 0 127 127
0.200679 -0.009744 -0.158105 0 127 127
0.572710 -0.027784 0.274241 153 0 76
-0.102160 0.019098 0.048025 127 0 127
-0.359092 0.000271 -0.175257 76 153 0
-0.849892 -0.018556 -0.270392 76 153 0
0.622493 0.011367 0.303216 153 0 76
0.547553 0.029971 -0.311637 0 127 127
-0.939650 -0.018556 -0.253547 76 153 0
0.211229 -0.028571 0.379094 153 0 76
-0.507561 0.016144 0.151413 127 0 127
0.179334 0.000271 0.141069 76 153 0
-0.153099 0.000271 0.043391 127 0 127
0.288211 0.011367 0.432903 153 0 76
0.157531 -0.000383 0.163649 76 153 0
-0.724126 0.019098 0.280853 127 0 127
-0.704064 0.014174 0.352788 127 0 127
-0.657747 0.000271 -0.207476 76 153 0
0.097357 0.011367 0.285616 153 0 76
0.383101 0.030194 -0.597416 0 127 127
0.339224 0.011367 0.487596 153 0 76
0.007930 0.019098 0.010404 127 127 0
0.207198 0.030194 -0.486684 0 127 127
0.109805 0.030194 -0.375585 0 127 127
0.169603 0.030194 -0.391251 0 127 127
0.586736 -0.017705 0.317697 153 0 76
0.553754 0.006516 -0.562869 0 127 127
0.210700 0.019098 -0.170908 127 0 127
0.033703 0.006546 0.184295 153 0 76
0.560195 0.011367 0.515198 153 0 76
-0.412210 -0.007461 -0.035929 76 153 0
0.141258 -0.009744 -0.295863 0 127 127
0.007261 -0.018556 0.041402 76 153 0
0.080781 0.030194 -0.239450 0 127 127
-0.141622 0.009578 -0.040970 127 0 127
-0.748041 0.019098 0.357048 127 0 127
0.146568 0.006858 -0.014200 127 0 127
0.092793 -0.024570 0.299671 153 0 76
0.020478 -0.000169 0.103678 76 153 0
0.190941 0.030194 -0.202130 0 127 127
-0.805063 0.019098 0.343365 127 0 127
0.116217 0.006176 0.337205 153 0 76
-0.501323 0.000271 0.265820 127 0 127
0.002373 0.000271 0.053959 127 0 127
0.168307 -0.018556 0.095105 76 153 0
0.131082 0.015548 0.007003 127 0 127
0.296580 0.011367 0.283753 153 0 76
0.188041 -0.009744 -0.211072 0 127 127
-0.550218 0.000271 -0.167964 76 153 0
-0.098599 -0.018556 -0.092619 76 153 0
-0.194334 0.000271 0.049907 127 0 127
-0.565186 0.019098 0.187957 127 0 127
-0.734327 -0.018556 -0.227227 76 153 0
-0.134289 -0.018556 0.030755 76 153 0
0.447836 0.008944 0.526700 153 0 76
0.123799 0.011367 0.263318 153 0 76
-0.009062 0.019098 0.095707 127 0 127
0.550540 -0.008195 -0.476215 0 127 127
0.337342 0.007387 0.281951 153 0 76
-0.155775 0.005295 -0.036223 127 0 127
-0.050862 0.000271 -0.107842 76 153 0
-0.912944 -0.018556 -0.262461 76 153 0
0.092378 0.000271 0.005655 127 0 127
-0.422961 0.000271 0.135319 127 0 127
-0.473538 0.019098 0.244299 127 0 127
0.068384 -0.018556 -0.014852 76 153 0
0.109345 -0.009744 -0.185513 0 127 127
0.186734 0.011367 0.136688 153 0 76
0.000834 0.000271 0.092973 127 0 127
0.231694 -0.009744 -0.320341 0 127 127
0.031022 0.018707 0.103208 127 0 127
-0.061498 0.000271 -0.046652 127 0 127
0.257490 0.000271 0.231729 76 153 0
0.173074 -0.009744 -0.446404 0 127 127
-0.606674 -0.018556 -0.120333 76 153 0
-0.057960 0.000271 0.085141 127 0 127
0.167718 0.000271 -0.143590 127 0 127
0.045465 0.030194 -0.184396 0 127 127
-0.637905 -0.018556 -0.167227 76 153 0
0.507935 -0.023738 0.236602 153 0 76
-0.189267 -0.018556 -0.110267 76 153 0
0.184338 0.019098 -0.205956 127 0 127
0.531860 0.025228 -0.352391 0 127 127
0.280300 0.011367 0.150158 153 0 76
-0.212683 0.000271 0.154346 127 0 127
0.237076 -0.009744 -0.212101 0 127 127
-0.362002 0.019098 0.095648 127 0 127
0.331271 -0.028571 0.245423 153 0 76
0.115484 -0.001561 -0.420076 0 127 127
0.501618 -0.028571 0.194760 153 0 76
-0.277112 0.019098 0.051333 127 0 127
0.359285 -0.023190 0.261974 153 0 76
-0.693910 -0.013291 -0.253597 76 153 0
0.582924 0.007113 0.521150 153 0 76
0.098167 0.005109 -0.113410 0 127 127
0.566162 -0.009744 -0.379196 0 127 127
-0.295924 -0.018556 -0.131415 76 153 0
-0.325988 -0.018556 -0.055939 76 153 0
-0.588440 -0.008623 -0.235000 76 153 0
0.308307 0.030194 -0.233272 0 127 127
0.017611 -0.018556 -0.026047 76 153 0
-0.221539 0.000271 -0.060050 76 153 0
-0.192519 0.019098 0.051782 127 0 127
-0.777922 -0.018556 -0.210769 76 153 0
0.321039 -0.003192 -0.549665 0 127 127
0.155266 -0.028067 0.372753 153 0 76
-0.254534 0.019098 0.130271 127 0 127
0.278067 0.030194 -0.301350 0 127 127
0.065374 0.000271 0.042433 127 0 127
-0.104775 0.000271 0.035498 127 0 127
0.012054 0.022745 -0.201737 0 127 127
-0.671936 0.019098 0.308114 127 0 127
0.435908 0.030194 -0.245787 0 127 127
-0.093555 0.000271 0.149824 127 0 127
0.197541 -0.009744 -0.394808 0 127 127
0.129184 0.000271 0.071189 76 153 0
-0.357051 0.019098 0.189884 127 0 127
0.208837 -0.028571 0.197688 153 0 76
0.008648 -0.000493 -0.193730 0 127 127
0.203318 0.011367 0.348004 153 0 76
-0.649467 0.019098 0.250359 127 0 127
-0.078248 -0.018556 -0.025555 76 153 0
0.608055 0.011179 0.417085 153 0 76
0.194325 -0.028571 0.394575 153 0 76
-0.445837 0.019098 0.190662 127 0 127
0.143424 0.030194 -0.157411 0 127 127
-0.488384 0.012894 0.136677 127 0 127
0.328707 -0.014691 0.306260 153 0 76
0.639139 -0.026998 0.419909 153 0 76
0.298633 0.004018 -0.331739 0 127 127
0.145870 -0.018556 0.124135 76 153 0
0.327311 -0.027814 0.285254 153 0 76
0.564461 -0.008198 0.206802 153 0 76
-0.535652 0.000271 0.210695 127 0 127
-0.680117 -0.005561 -0.251165 76 153 0
0.026292 0.027232 -0.232512 0 127 127
-0.299376 0.010629 0.026653 127 0 127
0.486595 -0.004420 -0.606505 0 127 127
0.081236 -0.009744 -0.151935 0 127 127
0.202520 -0.028328 0.116606 153 0 76
0.384246 -0.009744 -0.261752 0 127 127
-0.436093 -0.018556 -0.111115 76 153 0
-0.573245 0.000271 -0.111318 76 153 0
0.108961 0.000271 0.017446 127 0 127
-0.197892 0.016345 -0.022589 127 0 127
-0.880563 0.019098 0.378005 127 0 127
0.615365 -0.028571 0.453904 153 0 76
0.189905 0.011367 0.308546 153 0 76
-0.724967 0.019098 0.306476 127 0 127
-0.378885 -0.018556 -0.087930 76 153 0
-0.520308 -0.006223 -0.081810 76 153 0
0.198734 0.000271 -0.113011 127 0 127
0.441940 0.003571 -0.566768 0 127 127
0.254165 0.011367 0.237772 153 0 76
-0.282034 0.000271 0.150774 127 0 127
0.216676 -0.018556 0.134754 76 153 0
-0.337605 0.000271 0.111123 127 0 127
-0.239609 0.000271 0.096802 127 0 127
0.135914 -0.028571 0.142634 153 0 76
0.113200 0.030194 -0.290088 0 127 127
-0.384782 -0.018556 -0.048525 76 153 0
0.160669 0.019098 -0.121274 127 0 127
0.510502 -0.003754 -0.326161 0 127 127
0.059858 -0.009744 -0.261087 0 127 127
0.144564 -0.009744 -0.428227 0 127 127
0.160240 0.030194 -0.367842 0 127 127
-0.553850 0.000271 -0.194189 76 153 0
-0.412271 0.000271 0.164849 127 0 127
-0.143222 0.000271 0.123554 127 0 127
0.252544 -0.028571 0.245681 153 0 76
0.097575 -0.028571 0.141617 153 0 76
0.357659 -0.009744 -0.198958 0 127 127
-0.356498 -0.009087 -0.194103 76 153 0
-0.772642 -0.018556 -0.181579 76 153 0
0.215733 0.000271 -0.209790 127 0 127
-0.119139 0.019098 0.046991 127 0 127
-0.783470 -0.007998 -0.269389 76 153 0
-0.206297 0.000271 0.044317 127 0 127
0.065003 0.030194 -0.165919 0 127 127
-0.298432 0.000271 0.112897 127 0 127
0.261551 0.011367 0.447133 153 0 76
0.089122 0.030194 -0.152709 0 127 127
0.242106 -0.009744 -0.506318 0 127 127
-0.560715 -0.018556 -0.204150 76 153 0
0.148428 0.030194 -0.252555 0 127 127
0.139375 0.000271 -0.140343 127 0 127
0.099999 0.019098 -0.002240 127 0 127
0.042207 0.019098 0.032479 127 0 127
0.108977 0.019098 -0.123904 127 0 127
0.152412 0.019098 -0.046657 127 0 127
0.270780 0.002192 -0.481907 0 127 127
0.030820 0.000271 -0.059799 127 0 127
0.626611 0.006679 0.283550 153 0 76
0.122199 -0.009744 -0.146697 0 127 127
0.200568 0.019098 -0.181003 127 0 127
0.584872 -0.002761 0.222679 153 0 76
0.158118 -0.009744 -0.246177 0 127 127
-0.198312 0.000271 -0.053655 76 153 0
0.205636 -0.012023 0.100855 153 0 76
0.137825 -0.007160 -0.013943 76 153 0
-0.366658 0.000271 -0.133514 76 153 0
-0.191924 0.019098 0.184384 127 0 127
0.120002 0.030194 -0.178360 0 127 127
0.308852 -0.009744 -0.568403 0 127 127
0.247407 -0.009632 -0.397555 0 127 127
-0.533393 -0.018556 -0.197960 76 153 0
0.110609 -0.028571 0.259417 153 0 76
0.539599 0.000546 -0.282183 0 127 127
0.365925 0.007740 0.133994 153 0 76
0.100306 0.011367 0.142309 153 0 76
-0.604122 0.000271 0.218660 127 0 127
0.154581 0.000271 -0.069792 127 0 127
0.229015 0.030194 -0.503782 0 127 127
0.309337 -0.006994 -0.593652 0 127 127
0.425397 -0.025260 0.152177 153 0 76
-0.480152 0.000271 -0.078794 76 153 0
0.062834 -0.028571 0.170247 153 0 76
0.043211 0.019098 0.080046 127 0 127
0.216962 -0.009744 -0.304754 0 127 127
-0.167527 0.000271 0.178199 127 0 127
-0.075333 -0.018556 -0.001626 76 153 0
0.012229 -0.005655 0.130110 153 0 76
0.479658 -0.028571 0.194289 153 0 76
-0.278405 0.000271 0.175808 127 0 127
-0.794533 0.000271 -0.220906 76 153 0
-0.747386 0.000271 -0.233952 76 153 0
0.116056 0.000271 0.117230 76 153 0
-0.087236 0.000271 0.058176 76 153 0
0.059961 -0.018556 0.067842 76 153 0
-0.768925 0.019098 0.307590 127 0 127
0.167302 0.030194 -0.272640 0 127 127
-0.560955 0.000271 0.261324 127 0 127
0.514035 0.025459 -0.266852 0 127 127
0.138930 0.011367 0.151449 153 0 76
-0.514982 0.019098 0.253612 127 0 127
-0.353034 -0.018556 -0.137147 76 153 0
0.193240 -0.028571 0.363559 153 0 76
0.380007 0.011367 0.530406 153 0 76
0.412749 -0.007035 0.140045 153 0 76
0.229388 -0.000254 0.224345 76 153 0
0.589388 0.000938 0.426858 153 0 76
-0.313944 0.019098 0.107125 127 0 127
-0.315051 0.007109 0.232785 127 0 127
0.126774 0.019098 -0.159973 127 0 127
0.168116 0.019098 -0.137653 127 0 127
-0.396366 0.019098 0.157889 127 0 127
-0.418430 0.019098 0.129059 127 0 127
0.551719 0.030194 -0.529739 0 127 127
-0.709868 0.000271 -0.203904 76 153 0
0.086325 0.019098 -0.138837 127 0 127
0.138529 0.019672 -0.452183 0 127 127
0.082093 0.011367 0.242705 153 0 76
0.198816 0.000271 0.126896 76 153 0
0.018981 -0.018556 -0.012255 76 153 0
0.341358 0.030136 -0.575969 0 127 127
0.576115 -0.026141 0.465537 153 0 76
0.107511 0.030194 -0.200745 0 127 127
0.305704 0.009254 -0.155226 0 127 127
0.210875 0.030194 -0.391040 0 127 127
-0.397260 0.000271 -0.184207 76 153 0
0.604770 0.000959 0.506039 153 0 76
-0.063709 -0.007181 -0.141201 76 153 0
0.248854 -0.028571 0.425912 153 0 76
-0.904433 0.000271 -0.258182 76 153 0
-0.390289 -0.011848 -0.020769 76 153 0
-0.203685 -0.018556 -0.127380 76 153 0
0.056054 0.029189 -0.298097 0 127 127
0.113804 0.019098 -0.070710 127 0 127
0.065565 0.004788 0.108060 76 153 0
0.157089 0.000271 0.114012 76 153 0
0.595879 -0.007456 -0.417918 0 127 127
0.086910 0.012451 0.056435 127 0 127
0.220772 0.030194 -0.244088 0 127 127
0.264261 0.011367 0.358990 153 0 76
0.173105 0.011367 0.229697 153 0 76
0.577439 0.028654 -0.349635 0 127 127
0.334243 -0.021191 0.532795 153 0 76
0.421154 0.028503 -0.581045 0 127 127
0.228560 0.019098 -0.250980 127 0 127
0.144091 0.000271 0.009812 76 153 0
0.353973 -0.019793 0.480117 153 0 76
-0.118210 0.000271 0.008782 127 0 127
-0.180854 0.019098 0.014858 127 0 127
0.219786 0.005997 -0.169047 127 0 127
-0.182771 0.000271 0.099113 127 0 127
0.175165 -0.028571 0.119723 153 0 76
-0.036099 0.000271 0.107198 127 0 127
0.154945 0.030194 -0.222868 0 127 127
-0.071077 0.000271 0.141728 127 0 127
-0.010126 -0.018556 -0.109652 76 153 0
0.206597 0.000271 -0.250543 127 0 127
0.481198 -0.009744 -0.578044 0 127 127
-0.785004 0.019098 0.361463 127 0 127
0.051889 0.015369 -0.317253 0 127 127
0.395913 0.011434 -0.286035 0 127 127
0.239992 -0.028571 0.145770 153 0 76
-0.693941 0.000271 0.266276 127 0 127
-0.125095 0.000271 -0.143626 76 153 0
-0.474996 -0.018556 -0.190895 76 153 0
-0.560918 -0.018556 -0.089238 76 153 0
-0.571803 0.007759 0.176840 127 0 127
-0.515778 0.000271 0.160002 127 0 127
-0.081364 0.000271 0.122346 127 0 127
0.219099 0.019098 -0.201221 127 0 127
0.524869 -0.003348 -0.513058 0 127 127
0.330306 0.011367 0.193033 153 0 76
-0.072219 0.007168 0.157877 127 0 127
-0.073841 -0.018556 0.052400 76 153 0
0.062328 -0.028209 0.227396 153 0 76
-0.690221 0.005427 0.240557 127 0 127
-0.185416 0.019098 -0.002633 127 0 127
0.258656 -0.009744 -0.281717 0 127 127
0.346703 0.011367 0.234314 153 0 76
0.278096 0.011367 0.421407 153 0 76
-0.437777 0.000271 0.163460 127 0 127
-0.885855 -0.001243 -0.287443 76 153 0
0.001752 0.018037 0.122698 127 0 127
-0.327581 0.000271 -0.109964 76 153 0
-0.416711 -0.018556 -0.023974 76 153 0
0.223989 0.011367 0.162907 153 0 76
-0.518661 0.019098 0.212814 127 0 127
-0.431518 0.019098 0.155231 127 0 127
0.316969 0.029674 -0.591982 0 127 127
0.572876 0.030194 -0.459202 0 127 127
0.107222 -0.018556 -0.013815 76 153 0
-0.199380 0.019098 0.149236 127 0 127
-0.424422 0.000271 -0.118853 76 153 0
-0.511861 -0.018556 -0.137883 76 153 0
0.015306 0.030194 -0.144917 0 127 127
0.554480 -0.009744 -0.365667 0 127 127
-0.642038 0.000271 -0.178691 76 153 0
-0.814514 0.003482 0.386859 127 0 127
-0.849506 0.019098 0.348961 127 0 127
-0.455163 -0.018556 -0.061893 76 153 0
0.210726 0.030194 -0.466905 0 127 127
0.048691 0.000271 0.086843 127 0 127
0.275181 0.026494 -0.504989 0 127 127
-0.610624 0.000271 -0.205625 76 153 0
0.183225 -0.024365 0.106298 153 0 76
0.219719 -0.009744 -0.227828 0 127 127
-0.753250 -0.017686 -0.264061 76 153 0
0.214218 0.000271 -0.269072 127 0 127
-0.776340 0.000271 0.314403 127 0 127
0.152737 -0.028571 0.208633 153 0 76
0.121683 0.019098 -0.080534 127 0 127
-0.608122 -0.018556 -0.202430 76 153 0
0.120453 0.030194 -0.384968 0 127 127
0.096655 -0.018556 0.059406 76 153 0
-0.017141 0.000271 0.069729 76 153 0
0.112307 0.000271 -0.134620 127 0 127
0.210931 0.030194 -0.412956 0 127 127
0.307515 0.030194 -0.205769 0 127 127
0.228662 0.011367 0.188064 153 0 76
0.497201 0.016456 -0.606162 0 127 127
0.104654 -0.028571 0.164524 153 0 76
0.100686 0.005255 0.316445 153 0 76
0.246834 -0.028571 0.311244 153 0 76
-0.369760 -0.018556 -0.160778 76 153 0
0.299907 0.011367 0.258758 153 0 76
0.348604 0.017392 -0.620920 0 127 127
-0.378533 0.000271 0.181831 127 0 127
0.067465 0.000271 -0.081667 127 0 127
-0.233422 -0.018556 -0.040338 76 153 0
0.369528 0.011367 0.194829 153 0 76
-0.103874 0.019098 -0.025586 127 0 127
0.517708 0.030194 -0.288229 0 127 127
0.554018 -0.007185 -0.451542 0 127 127
-0.637130 0.009572 0.332140 127 0 127
-0.408512 0.000271 -0.108290 76 153 0
0.322169 -0.012107 0.116435 153 0 76
0.179616 -0.018556 0.135486 76 153 0
0.260924 -0.028571 0.178693 153 0 76
0.338919 -0.009736 0.539498 153 0 76
0.232501 0.030194 -0.196162 0 127 127
-0.069134 0.000271 0.063861 127 0 127
-0.101276 -0.007345 0.066687 76 153 0
-0.807475 -0.012899 -0.273622 76 153 0
