ply
format ascii 1.0
element vertex 1276
property float x
property float y
property float z
property uchar red
property uchar green
property uchar blue
end_header
0.156978 -0.468856 0.240162 76 0 153
-0.210528 0.186424 0.126622 76 0 153
0.194874 -0.479775 -0.196204 76 0 153
0.117114 -0.772114 0.096540 153 76 0
0.057071 -0.772518 -0.011721 153 76 0
-0.218331 -0.258303 -0.126443 76 0 153
-0.205144 -0.537304 -0.146930 76 0 153
-0.084454 0.616791 -0.156101 153 76 0
0.173441 -0.182157 0.225790 76 0 153
0.188623 0.324770 -0.214777 76 0 153
0.227700 0.220572 0.133227 76 0 153
0.288508 -0.210812 0.023147 76 0 153
0.154225 -0.711470 0.235856 76 0 153
-0.066197 -0.192159 0.278012 76 0 153
-0.217256 0.575741 -0.005179 76 0 153
0.279231 -0.581946 -0.050049 76 0 153
0.244411 -0.640224 -0.010648 153 76 0
0.049017 0.983635 0.031673 76 0 153
-0.093152 -0.081766 -0.232512 153 76 0
0.186388 -0.156594 -0.218646 76 0 153
0.182552 -0.043622 0.211614 76 0 153
0.284368 -0.740794 -0.029805 76 0 153
0.002926 -0.776304 -0.041431 76 0 153
-0.107477 0.588326 -0.210153 76 0 153
0.027079 0.957566 -0.092452 76 0 153
-0.162047 -0.805968 0.174907 76 0 153
0.160622 -0.267589 0.182850 76 0 153
-0.222323 -0.214847 0.094648 153 76 0
0.060302 -0.234394 0.278821 76 0 153
0.131571 0.535545 -0.125502 153 76 0
-0.009962 0.705575 -0.150731 76 0 153
-0.161815 -0.615039 0.236386 76 0 153
0.120992 0.799975 -0.046575 76 0 153
-0.063826 -0.631275 0.278680 76 0 153
-0.208365 0.245900 0.167463 76 0 153
0.185086 -0.395466 0.152889 153 76 0
-0.241812 -0.531571 -0.041430 153 76 0
0.138039 -0.195590 -0.213441 76 0 153
-0.131570 0.717914 -0.088233 76 0 153
0.239741 0.072962 -0.074103 76 0 153
0.224016 -0.573236 0.090181 153 76 0
-0.206211 0.404662 0.037480 153 76 0
0.061946 -0.085557 0.256951 76 0 153
0.207620 0.134473 -0.135919 153 76 0
0.242275 -0.530720 0.022054 153 76 0
-0.018515 -0.247883 -0.250522 153 76 0
-0.221152 -0.694540 0.145312 76 0 153
0.246157 0.216335 -0.038017 76 0 153
-0.199789 -0.202944 0.140713 76 0 153
-0.214101 -0.750300 0.072282 153 76 0
0.115869 0.510405 -0.064559 153 76 0
0.195005 -0.405322 -0.160077 76 0 153
0.095023 -0.772448 -0.068098 153 76 0
-0.082507 0.420395 0.166495 76 0 153
0.055136 0.175057 0.280118 76 0 153
-0.246233 -0.091774 -0.037755 76 0 153
-0.051566 -0.022059 0.232645 153 76 0
-0.266325 0.408168 0.062760 76 0 153
-0.210897 0.219390 -0.168504 76 0 153
-0.067019 0.190645 0.278094 76 0 153
-0.228683 -0.245417 0.132267 76 0 153
0.005482 -0.120151 -0.255339 76 0 153
0.109465 -0.115335 -0.229822 76 0 153
-0.153963 0.712103 0.151226 76 0 153
0.199870 0.345555 -0.195287 76 0 153
0.030545 0.434777 0.163295 76 0 153
-0.030783 -0.816041 -0.180981 76 0 153
0.023081 0.666471 0.201233 76 0 153
0.203499 -0.161515 0.135385 76 0 153
0.102307 -0.816130 -0.029564 76 0 153
-0.284437 0.212034 -0.035669 76 0 153
0.006619 -0.656043 -0.250927 153 76 0
0.204947 -0.046878 -0.178754 76 0 153
0.166766 -0.506413 0.226040 76 0 153
-0.003633 0.571368 0.166483 153 76 0
-0.040507 0.791970 -0.112823 76 0 153
-0.146901 -0.028711 -0.206702 76 0 153
-0.031140 -0.772180 0.184650 153 76 0
-0.086388 -0.816041 -0.077451 76 0 153
0.130490 0.666279 0.061077 153 76 0
0.121942 0.550103 0.147630 153 76 0
0.113371 0.191781 0.214989 76 0 153
0.245845 -0.336321 -0.037947 76 0 153
-0.276131 -0.602537 -0.055540 76 0 153
-0.259444 -0.222035 0.072585 76 0 153
-0.100873 -0.165396 0.256762 76 0 153
0.030917 -0.724001 0.235598 76 0 153
-0.256024 -0.470801 -0.098130 76 0 153
-0.144614 -0.790819 0.207705 76 0 153
-0.056632 -0.819977 -0.195095 76 0 153
0.153848 -0.543217 -0.250984 76 0 153
-0.162813 0.458870 0.129739 76 0 153
-0.103774 -0.497488 -0.227760 153 76 0
0.000508 0.438216 0.162014 76 0 153
-0.228621 0.107450 -0.137835 76 0 153
-0.152640 0.438023 0.180219 76 0 153
0.002965 -0.776304 0.061144 76 0 153
0.230856 -0.623889 -0.097480 76 0 153
-0.060863 -0.274347 0.256951 76 0 153
0.176738 0.533616 0.058024 153 76 0
-0.235150 -0.688607 0.073868 76 0 153
0.183020 -0.804332 0.145104 76 0 153
0.173647 0.520942 0.012058 153 76 0
0.136810 0.659190 0.019902 153 76 0
0.203373 -0.362087 0.128960 153 76 0
0.150731 -0.775761 -0.230080 76 0 153
0.092742 0.852479 0.043503 76 0 153
-0.086103 0.040392 0.272983 76 0 153
0.239954 0.305947 0.059437 76 0 153
-0.166795 0.663824 0.049241 153 76 0
-0.291703 -0.536598 0.009039 76 0 153
-0.191515 -0.764954 0.090027 153 76 0
-0.026938 0.544491 -0.136284 153 76 0
-0.240101 -0.236137 0.039964 153 76 0
-0.161134 0.157346 -0.250362 76 0 153
0.025291 -0.057056 0.256951 76 0 153
0.175884 0.198610 0.222718 76 0 153
-0.197019 -0.350284 0.179745 76 0 153
-0.162214 -0.069114 0.176512 153 76 0
-0.152929 -0.482643 0.188750 76 0 153
0.167867 0.058674 0.224859 76 0 153
-0.178400 0.428120 -0.033853 76 0 153
0.058768 0.143965 0.279576 76 0 153
0.141362 0.522972 0.092774 153 76 0
-0.093624 -0.772114 0.105908 153 76 0
0.187036 -0.698743 0.204314 76 0 153
-0.240133 0.002080 0.059576 76 0 153
-0.171974 0.533188 0.026811 153 76 0
-0.048348 0.998235 0.008921 76 0 153
0.205002 0.095926 0.126565 153 76 0
0.041456 -0.819978 0.038409 76 0 153
0.287118 0.007899 -0.041024 76 0 153
-0.284901 0.203555 0.021501 76 0 153
-0.015490 0.490946 0.126146 153 76 0
0.209303 -0.526418 -0.178947 76 0 153
0.093640 0.937051 -0.060766 76 0 153
-0.122398 0.738262 -0.006145 76 0 153
-0.014295 0.983635 -0.070891 76 0 153
-0.027463 0.985185 -0.103635 76 0 153
-0.196439 -0.497974 -0.194891 76 0 153
0.258271 0.185310 -0.086401 76 0 153
-0.111233 -0.776304 -0.075414 76 0 153
0.183615 -0.604817 -0.223450 76 0 153
0.073735 0.981414 0.038812 76 0 153
0.120654 0.666322 -0.195848 76 0 153
0.153873 0.443593 0.029315 153 76 0
-0.073412 0.507548 0.105968 76 0 153
-0.192665 -0.250387 0.149965 76 0 153
0.265054 -0.472839 -0.082400 76 0 153
-0.070681 -0.551155 0.277423 76 0 153
-0.275550 0.307186 -0.064326 76 0 153
-0.116807 0.761403 0.010688 76 0 153
-0.225781 0.396351 -0.037075 76 0 153
-0.215810 -0.150729 -0.160695 76 0 153
-0.214745 -0.285094 -0.123644 153 76 0
-0.147653 -0.378900 -0.259601 76 0 153
0.268879 -0.768450 -0.059408 76 0 153
0.201534 0.325733 -0.144706 153 76 0
-0.219987 0.004020 0.139575 76 0 153
0.106497 0.243180 0.264640 76 0 153
-0.114249 -0.416497 -0.223123 153 76 0
0.131842 -0.772207 -0.136187 153 76 0
0.186888 0.615213 0.123115 76 0 153
-0.169993 -0.769017 0.131352 76 0 153
-0.130142 0.595332 -0.127660 153 76 0
0.016417 0.717843 0.188325 76 0 153
-0.234145 0.129888 0.076555 76 0 153
-0.096750 -0.819978 -0.014596 76 0 153
0.272147 -0.223505 0.049150 76 0 153
0.058813 0.717846 0.178918 76 0 153
0.234024 -0.100401 -0.128393 76 0 153
0.106984 -0.772216 -0.117868 153 76 0
-0.271491 0.157466 0.058120 76 0 153
0.104752 0.703117 -0.202380 76 0 153
0.079102 0.935575 0.042824 76 0 153
0.065733 -0.172151 0.277814 76 0 153
-0.098780 -0.556632 -0.229830 153 76 0
0.209868 0.300978 0.164303 76 0 153
0.149209 -0.675092 -0.199640 153 76 0
-0.272434 -0.027818 -0.069717 76 0 153
0.224740 -0.002337 -0.101654 153 76 0
-0.127516 -0.565590 0.206988 76 0 153
-0.144339 0.459504 -0.034438 153 76 0
0.013881 -0.363874 -0.254963 76 0 153
0.075815 0.148585 0.230411 76 0 153
0.242460 -0.388143 0.020585 153 76 0
0.116065 0.756786 0.021128 76 0 153
-0.237901 -0.199831 0.109898 76 0 153
-0.084078 -0.326284 0.273039 76 0 153
0.076890 -0.772439 -0.153847 153 76 0
-0.098758 0.643180 0.180601 76 0 153
-0.009423 -0.521176 0.285349 76 0 153
0.236430 0.122830 -0.083865 76 0 153
0.282799 -0.231327 -0.040768 76 0 153
-0.183995 -0.555416 0.161035 76 0 153
-0.233392 0.266221 -0.081078 153 76 0
0.068944 -0.772114 0.094700 153 76 0
-0.074709 -0.117504 0.256951 76 0 153
0.250691 -0.034841 -0.106926 76 0 153
0.174099 0.138429 0.225266 76 0 153
0.214981 0.017840 0.109940 153 76 0
-0.100481 0.473022 -0.104588 153 76 0
-0.084224 -0.167030 0.222652 153 76 0
0.222534 -0.483281 0.135079 76 0 153
-0.110203 0.529932 0.128107 153 76 0
0.205986 0.412392 -0.019631 76 0 153
0.186686 -0.452410 0.204918 76 0 153
0.195596 0.372180 0.189478 76 0 153
-0.039555 0.743920 -0.136570 76 0 153
-0.275887 -0.063443 -0.063740 76 0 153
0.239518 -0.517724 0.061749 76 0 153
-0.240429 -0.052965 0.111925 76 0 153
-0.205825 -0.768102 0.022127 153 76 0
0.231353 -0.446853 0.127555 76 0 153
0.264009 0.124992 0.063249 76 0 153
0.015735 0.912120 0.088405 76 0 153
0.188085 0.690340 -0.094358 76 0 153
-0.169171 0.369039 0.163440 153 76 0
0.050563 0.389882 0.216164 153 76 0
0.217166 -0.283041 -0.165361 76 0 153
0.197645 -0.349481 -0.149793 153 76 0
-0.292566 -0.595047 -0.010156 76 0 153
-0.020890 0.680802 -0.228341 76 0 153
-0.232225 -0.572545 -0.139353 76 0 153
-0.170873 0.342721 -0.235047 76 0 153
-0.217232 0.643460 0.057561 76 0 153
0.236219 -0.346060 -0.071983 153 76 0
-0.123503 0.632598 -0.038877 153 76 0
-0.107364 0.783029 -0.047750 76 0 153
-0.094396 -0.776304 -0.125195 76 0 153
-0.241718 -0.039859 0.053305 76 0 153
0.054244 0.963286 -0.095405 76 0 153
-0.049073 -0.532475 0.256951 76 0 153
0.097831 0.435619 0.216969 76 0 153
0.070773 0.568662 0.213651 76 0 153
-0.257520 -0.415710 -0.088457 76 0 153
-0.084937 0.657389 0.200934 76 0 153
-0.235519 -0.277577 0.120429 76 0 153
0.264055 -0.428526 0.070918 76 0 153
-0.143958 -0.252789 -0.204215 153 76 0
0.097795 -0.776304 0.072832 76 0 153
-0.214927 -0.587798 -0.123402 153 76 0
-0.134701 0.058316 0.252196 76 0 153
0.226279 -0.337019 -0.097939 153 76 0
0.010389 -0.766691 0.203546 153 76 0
-0.215695 0.254253 0.118079 76 0 153
-0.204240 -0.748361 0.174614 76 0 153
0.137398 0.564073 -0.114994 153 76 0
0.276111 0.388468 -0.039658 76 0 153
-0.099133 -0.384025 0.216472 153 76 0
-0.221276 -0.395718 0.137346 76 0 153
0.018903 0.653613 -0.230558 76 0 153
-0.194954 0.468144 -0.008950 76 0 153
-0.178381 -0.053409 -0.174491 153 76 0
0.219047 0.316615 -0.114799 153 76 0
0.213173 0.588389 -0.031799 76 0 153
-0.074264 -0.684061 0.276521 76 0 153
0.240285 -0.198703 -0.125300 76 0 153
-0.065617 -0.720583 -0.239070 153 76 0
-0.098474 0.657675 -0.102154 153 76 0
-0.239910 0.172440 0.112825 76 0 153
-0.137900 0.438600 -0.104779 76 0 153
-0.153955 -0.317976 0.187479 76 0 153
-0.107310 0.837534 -0.011708 76 0 153
0.128043 0.362431 0.204568 76 0 153
0.209057 0.284704 -0.171614 76 0 153
0.190067 -0.811546 -0.146908 76 0 153
0.080234 -0.327212 -0.241906 76 0 153
0.002449 0.435775 0.244702 76 0 153
-0.244625 0.253718 0.007825 153 76 0
-0.213859 -0.479562 -0.125254 153 76 0
0.287668 -0.577706 -0.019525 76 0 153
0.234956 -0.754421 0.113273 76 0 153
0.013258 -0.612114 0.256951 76 0 153
-0.028337 0.008903 0.256951 76 0 153
0.179874 -0.144842 0.216582 76 0 153
0.241418 -0.670877 0.102367 76 0 153
0.215754 0.233044 0.108523 153 76 0
0.284733 -0.662386 0.033144 76 0 153
-0.258215 -0.644321 -0.094342 76 0 153
0.037564 -0.541980 -0.247906 153 76 0
0.071153 0.855396 -0.083655 76 0 153
-0.196825 0.206830 0.144572 76 0 153
0.220961 -0.454614 0.097547 153 76 0
-0.139510 0.504434 -0.112492 153 76 0
0.039644 0.744668 0.123189 76 0 153
0.217721 -0.234762 0.114300 76 0 153
-0.079701 -0.772114 0.079435 153 76 0
0.092446 -0.192771 -0.236872 76 0 153
-0.053512 -0.130865 0.256951 76 0 153
-0.261991 -0.726881 0.074590 76 0 153
-0.042488 0.614979 0.164039 153 76 0
-0.091799 0.770612 -0.101734 76 0 153
-0.292500 -0.340693 -0.011406 76 0 153
-0.045267 -0.688016 0.233480 153 76 0
-0.075260 0.840489 -0.101690 76 0 153
0.159024 0.703305 -0.019819 76 0 153
-0.231615 -0.787805 -0.113423 76 0 153
0.130789 0.413204 -0.152220 153 76 0
-0.243925 -0.604419 0.009974 153 76 0
0.067483 0.495972 0.162440 153 76 0
-0.089749 0.318199 0.256927 76 0 153
-0.199038 -0.060448 -0.196838 76 0 153
-0.121083 0.559857 0.033489 153 76 0
0.240876 -0.674393 -0.069710 76 0 153
-0.007269 0.555048 0.189028 153 76 0
-0.292402 0.228526 -0.000159 76 0 153
-0.037216 -0.772114 -0.140460 153 76 0
0.099513 -0.437821 0.216306 153 76 0
-0.154761 -0.475070 -0.195445 153 76 0
-0.169948 0.557473 0.086217 153 76 0
-0.085753 -0.453551 -0.235483 153 76 0
-0.022161 -0.722163 0.233227 153 76 0
-0.187420 -0.032347 -0.216944 76 0 153
-0.149555 0.540571 0.117753 153 76 0
-0.135594 0.090259 0.248139 76 0 153
-0.227018 0.630227 -0.015218 76 0 153
0.285350 0.352762 0.017086 76 0 153
-0.251316 -0.711028 -0.106275 76 0 153
-0.040759 -0.816041 -0.145851 76 0 153
0.246073 -0.088932 -0.038652 76 0 153
-0.199711 -0.118471 0.134193 153 76 0
-0.201806 0.461397 0.048261 76 0 153
0.000101 0.261491 0.237973 153 76 0
0.241862 -0.725093 0.024624 76 0 153
0.149702 -0.025991 0.244712 76 0 153
0.181096 0.541656 0.000517 153 76 0
-0.019158 0.650739 0.127116 153 76 0
0.083954 0.761932 -0.090865 76 0 153
-0.252067 0.106208 -0.104976 76 0 153
0.241677 0.211390 -0.066530 76 0 153
-0.292220 0.311240 -0.016709 76 0 153
0.244901 -0.195385 0.096331 76 0 153
0.198913 0.703238 -0.014898 76 0 153
0.253249 -0.229798 -0.095101 76 0 153
0.176281 0.066847 -0.228034 76 0 153
0.023138 0.676509 -0.136159 153 76 0
0.236633 -0.229624 -0.070534 153 76 0
-0.078905 0.114654 -0.238056 153 76 0
-0.021562 0.566373 -0.179637 153 76 0
0.115874 0.469275 -0.161879 76 0 153
-0.084611 0.574575 -0.220689 76 0 153
-0.248805 -0.118466 -0.011069 76 0 153
0.131331 0.584908 -0.176700 76 0 153
0.110876 -0.025557 0.211185 153 76 0
-0.234365 -0.099999 0.065285 153 76 0
0.032473 -0.523028 0.235207 153 76 0
-0.142621 -0.410175 -0.258149 76 0 153
0.223153 0.075206 -0.105479 153 76 0
0.164224 0.172659 -0.247948 76 0 153
0.212927 -0.229536 -0.134813 76 0 153
-0.241358 -0.570508 -0.068233 76 0 153
-0.011208 -0.772114 0.159348 153 76 0
-0.219867 -0.811419 0.052541 76 0 153
-0.058084 0.626723 0.214135 76 0 153
-0.171697 -0.516122 -0.234196 76 0 153
-0.246869 0.242420 0.093014 76 0 153
0.162565 -0.730934 -0.238245 76 0 153
-0.192035 -0.678113 0.187976 76 0 153
-0.210393 0.599310 -0.047247 76 0 153
0.103094 0.656224 0.069388 153 76 0
-0.127817 -0.334187 0.206594 76 0 153
-0.057283 0.547635 0.107843 153 76 0
-0.044469 0.058479 0.281529 76 0 153
0.257574 -0.266551 0.074379 76 0 153
-0.012652 0.569421 -0.138163 153 76 0
-0.142723 -0.016005 -0.257871 76 0 153
-0.031342 -0.658349 0.283257 76 0 153
0.107082 0.703257 0.188193 76 0 153
-0.143848 -0.142204 0.248000 76 0 153
0.279465 -0.436038 -0.056779 76 0 153
0.204353 0.011888 0.134215 76 0 153
0.016476 0.299773 0.237303 153 76 0
0.080969 -0.743111 -0.230327 76 0 153
0.045002 -0.742542 -0.235008 153 76 0
-0.072094 0.225512 -0.240859 153 76 0
-0.107685 -0.606266 0.217205 76 0 153
-0.082462 -0.765409 0.257145 76 0 153
-0.217978 0.189075 -0.118185 153 76 0
-0.030487 -0.463523 -0.252907 76 0 153
0.211889 -0.622572 0.153487 76 0 153
0.146164 0.342401 -0.255636 76 0 153
0.022517 0.447093 0.217667 76 0 153
-0.197361 0.102004 0.137015 153 76 0
-0.240703 -0.431706 0.035074 153 76 0
-0.236190 -0.088058 0.119265 76 0 153
0.239211 -0.371374 -0.127161 76 0 153
0.199214 0.593763 -0.085535 76 0 153
-0.130168 0.632814 0.160097 76 0 153
0.171842 0.264594 -0.241042 76 0 153
-0.099516 -0.816171 0.157758 76 0 153
0.177629 -0.776304 -0.047079 76 0 153
0.227104 -0.392424 0.134916 76 0 153
0.076265 0.284854 0.230237 76 0 153
-0.199965 0.634349 -0.076238 76 0 153
0.149710 0.690801 0.158136 76 0 153
0.200330 -0.523843 0.173526 76 0 153
-0.168516 0.485331 0.076585 153 76 0
-0.161347 0.404287 0.218271 76 0 153
0.144670 -0.402169 0.243377 76 0 153
-0.058814 0.044441 -0.244611 153 76 0
0.017114 0.642207 -0.181237 153 76 0
0.114240 0.864971 -0.038318 76 0 153
0.212258 -0.192202 0.152851 76 0 153
-0.218232 0.680671 -0.054320 76 0 153
0.089873 -0.804458 -0.227108 76 0 153
-0.157481 0.351462 -0.191738 153 76 0
0.181252 0.279527 0.206575 76 0 153
-0.146474 -0.764633 0.147942 153 76 0
-0.226299 0.093338 0.084816 153 76 0
0.122252 -0.776304 0.000594 76 0 153
0.112839 -0.670302 0.215206 76 0 153
-0.006536 0.973777 -0.093840 76 0 153
0.184207 -0.219163 0.154015 153 76 0
-0.231329 -0.414663 0.073532 153 76 0
-0.249938 -0.057631 0.088368 76 0 153
-0.256852 -0.249853 0.083496 76 0 153
0.063165 0.464819 0.122530 153 76 0
-0.008429 0.983635 0.024058 76 0 153
0.186201 0.417768 0.019451 153 76 0
0.173957 0.555040 0.028550 153 76 0
0.182288 -0.553048 -0.170351 153 76 0
-0.136895 0.008499 0.251500 76 0 153
-0.071051 0.619948 -0.113302 153 76 0
0.038532 -0.743267 0.256983 76 0 153
0.169861 0.138092 0.169739 153 76 0
0.239689 -0.243615 0.061091 76 0 153
0.058702 -0.698080 -0.244306 153 76 0
0.118286 0.862767 -0.012150 76 0 153
-0.228614 -0.461983 -0.145607 76 0 153
0.161581 -0.629005 -0.195374 76 0 153
-0.285601 -0.447513 -0.031287 76 0 153
0.118883 0.533966 0.125911 153 76 0
-0.217441 0.328505 0.143980 76 0 153
-0.023079 -0.516600 -0.253882 76 0 153
-0.033963 0.566059 0.116470 153 76 0
-0.216482 0.436293 -0.115318 76 0 153
-0.227005 -0.137730 0.128080 76 0 153
0.015606 0.802535 0.119158 76 0 153
0.090173 0.575547 -0.218293 76 0 153
-0.244431 -0.286305 -0.010643 153 76 0
0.043929 0.764777 -0.115644 76 0 153
0.245396 0.169059 -0.108697 76 0 153
-0.216548 0.592637 -0.081920 76 0 153
-0.184143 0.205816 0.201662 76 0 153
0.076872 -0.377751 0.275725 76 0 153
-0.051237 0.957866 -0.080293 76 0 153
-0.149422 -0.405771 -0.204767 76 0 153
0.253220 -0.716401 0.089427 76 0 153
-0.015043 -0.252719 0.237332 153 76 0
-0.037317 0.439117 0.229590 76 0 153
-0.192363 -0.658487 0.150356 76 0 153
0.231537 0.077580 0.072019 153 76 0
0.248269 0.182464 0.097475 76 0 153
0.216364 0.703386 -0.055753 76 0 153
0.232197 -0.735359 -0.050591 153 76 0
-0.124808 0.612109 -0.179285 76 0 153
0.214712 -0.014855 0.110428 153 76 0
-0.119875 -0.674633 0.259197 76 0 153
-0.002466 -0.814056 0.212738 76 0 153
-0.246028 -0.086494 0.026084 76 0 153
-0.038064 0.149669 0.238700 76 0 153
-0.208780 0.692211 -0.004606 76 0 153
-0.125929 0.653266 -0.174715 76 0 153
0.003951 -0.219504 0.237829 153 76 0
-0.256807 0.378507 0.083573 76 0 153
0.002773 0.174278 -0.251088 153 76 0
-0.174727 -0.816041 0.067446 76 0 153
0.015721 -0.147872 0.284660 76 0 153
0.149905 -0.767163 0.136299 153 76 0
-0.256657 -0.647347 0.077418 76 0 153
-0.170187 0.286570 -0.236090 76 0 153
-0.136010 -0.087629 0.247923 76 0 153
-0.086426 0.011579 -0.239374 76 0 153
0.256254 -0.386285 -0.097643 76 0 153
-0.018328 0.606905 0.120110 153 76 0
-0.144949 0.412683 -0.153651 76 0 153
-0.122494 -0.369171 0.205128 153 76 0
-0.183951 0.173240 -0.174524 76 0 153
-0.079555 0.087810 0.256951 76 0 153
-0.108471 0.565183 0.069102 153 76 0
0.167684 -0.790045 -0.197063 76 0 153
0.132749 -0.747308 -0.257879 76 0 153
-0.203634 0.187877 0.167860 76 0 153
0.201391 -0.176003 -0.192026 76 0 153
0.141016 -0.518801 -0.263222 76 0 153
0.035024 0.717897 0.154158 76 0 153
-0.093140 -0.692424 -0.236399 76 0 153
0.208100 -0.815245 0.087200 76 0 153
0.209702 -0.434348 -0.178254 76 0 153
0.209484 0.408512 -0.176746 76 0 153
-0.226418 -0.247744 0.085496 153 76 0
-0.131658 -0.232130 -0.263342 76 0 153
-0.065149 0.336636 0.256951 76 0 153
0.105943 0.043663 0.256451 76 0 153
0.236663 -0.518252 -0.123823 76 0 153
0.188643 0.399624 -0.130933 76 0 153
-0.185950 -0.565070 -0.165398 153 76 0
-0.140381 0.474173 0.024482 76 0 153
-0.275394 0.238825 0.051359 76 0 153
0.117724 0.676091 0.117987 153 76 0
-0.243666 -0.338894 -0.024568 153 76 0
-0.191835 -0.613152 0.144226 153 76 0
0.061630 -0.592187 0.234391 76 0 153
-0.174138 0.666605 -0.123118 76 0 153
-0.178125 -0.770929 -0.213109 76 0 153
0.124378 -0.552465 -0.222450 76 0 153
0.073030 0.203765 0.231493 76 0 153
0.003272 0.533751 -0.195175 153 76 0
-0.165218 -0.733311 0.170896 76 0 153
-0.158316 0.138095 -0.197927 76 0 153
-0.288618 -0.485813 -0.010955 76 0 153
-0.032177 -0.819978 -0.104663 76 0 153
0.243229 -0.456925 -0.057560 76 0 153
0.225069 0.106190 -0.150908 76 0 153
-0.166923 -0.676879 0.225920 76 0 153
-0.085566 0.012722 0.273186 76 0 153
0.176124 0.703276 0.005617 76 0 153
-0.007297 -0.157991 0.237660 153 76 0
-0.096925 0.822472 -0.058051 76 0 153
-0.174318 -0.159797 0.217184 76 0 153
0.010231 0.414358 -0.208745 76 0 153
0.026489 0.301216 0.283831 76 0 153
0.188958 0.136383 -0.214195 76 0 153
0.121926 0.608030 0.030948 153 76 0
-0.184727 0.631077 -0.113492 76 0 153
-0.292223 -0.388478 -0.016660 76 0 153
0.149614 0.598735 -0.090703 153 76 0
-0.048267 -0.660259 0.256951 76 0 153
0.066848 0.671244 -0.116786 153 76 0
-0.207905 -0.528191 -0.181466 76 0 153
0.179643 -0.336143 -0.222584 76 0 153
0.050700 -0.583972 0.280702 76 0 153
-0.158809 -0.087517 0.233578 76 0 153
0.097179 0.545040 0.163790 153 76 0
-0.209284 -0.054868 0.158062 76 0 153
-0.105795 0.354597 0.211701 153 76 0
0.052490 0.998235 0.012644 76 0 153
-0.109905 -0.415357 0.263339 76 0 153
0.153474 0.175237 0.183164 153 76 0
0.229397 0.130079 0.086896 76 0 153
-0.248338 -0.570368 0.008218 76 0 153
-0.085417 0.839724 0.080826 76 0 153
0.117912 0.725118 0.071948 76 0 153
0.102766 -0.285986 0.214958 153 76 0
0.061621 0.247959 0.230721 153 76 0
-0.209026 -0.294501 0.166319 76 0 153
0.129908 0.565322 -0.031795 153 76 0
-0.163556 0.717896 0.013050 76 0 153
-0.035097 0.935700 -0.092570 76 0 153
-0.185997 0.297773 -0.166141 153 76 0
-0.026861 0.676472 -0.136823 153 76 0
0.127670 -0.072174 -0.269074 76 0 153
-0.119446 0.846518 0.008440 76 0 153
0.216817 0.082239 0.152706 76 0 153
-0.009238 0.122192 -0.255176 76 0 153
-0.132253 0.523701 -0.017392 153 76 0
0.214137 -0.023677 -0.124668 153 76 0
0.069919 0.555614 0.175144 153 76 0
-0.011600 -0.537650 0.237478 153 76 0
0.046964 0.461812 -0.149685 76 0 153
0.011414 0.998235 0.063567 76 0 153
-0.135822 -0.480960 -0.265596 76 0 153
-0.040006 0.326100 0.234259 153 76 0
-0.245316 0.134402 0.031487 76 0 153
-0.124481 0.606055 -0.051563 153 76 0
-0.247851 0.174240 -0.104532 76 0 153
0.287469 -0.082517 -0.022237 76 0 153
0.198331 0.683214 0.057743 76 0 153
-0.236729 0.075952 0.111249 76 0 153
0.019086 -0.439333 0.256951 76 0 153
-0.015451 0.834665 -0.112954 76 0 153
0.243064 -0.466784 -0.120485 76 0 153
0.023478 0.634507 -0.136823 153 76 0
-0.227713 0.419658 0.129079 76 0 153
0.278910 0.200231 0.044498 76 0 153
-0.214645 -0.364897 0.148809 76 0 153
0.204724 0.018038 -0.140172 153 76 0
0.061443 -0.598111 -0.247932 76 0 153
-0.000266 -0.064291 0.237958 153 76 0
-0.021006 0.147023 0.256951 76 0 153
0.010556 0.333259 0.237531 153 76 0
-0.172452 0.650993 0.137778 76 0 153
-0.094745 0.303626 -0.235930 76 0 153
-0.160364 0.613561 -0.078718 153 76 0
-0.127595 0.758647 0.033139 76 0 153
-0.030334 0.604166 -0.175252 153 76 0
-0.101621 0.916775 0.036100 76 0 153
0.277658 -0.310596 -0.052811 76 0 153
-0.129477 -0.780403 -0.240708 76 0 153
-0.193340 -0.303345 0.186377 76 0 153
0.129883 0.595773 -0.031854 153 76 0
0.174505 -0.128478 0.165221 153 76 0
-0.209701 0.077656 0.157340 76 0 153
0.132235 0.714221 -0.178931 76 0 153
-0.054428 -0.336021 0.256951 76 0 153
0.216721 -0.217470 0.152918 76 0 153
-0.237485 -0.339968 -0.081293 76 0 153
-0.148473 0.387941 -0.250066 76 0 153
0.099980 0.399875 0.249097 76 0 153
-0.017139 0.600121 -0.234654 76 0 153
0.166670 0.411704 0.101318 153 76 0
-0.079548 0.717820 -0.199434 76 0 153
0.115983 -0.012810 -0.272337 76 0 153
0.056537 -0.775140 -0.204514 76 0 153
-0.206185 -0.290221 -0.145563 76 0 153
0.136047 0.465679 -0.065549 76 0 153
0.054664 0.375774 -0.243157 76 0 153
-0.133039 -0.776125 0.222864 76 0 153
0.123020 0.511726 -0.134283 153 76 0
0.289240 -0.469968 0.021092 76 0 153
-0.037721 -0.684673 0.256951 76 0 153
0.044364 0.414671 0.181494 153 76 0
-0.063334 -0.490011 0.256951 76 0 153
-0.120793 0.557596 -0.048229 153 76 0
0.082080 -0.559758 -0.236749 153 76 0
0.233054 -0.658962 -0.091784 76 0 153
-0.192202 -0.039175 0.150565 76 0 153
0.047091 -0.390480 0.237437 76 0 153
0.265756 0.085943 0.067300 76 0 153
0.036318 -0.448537 -0.252132 76 0 153
0.018012 0.392981 0.275441 76 0 153
-0.181883 0.229202 0.163128 76 0 153
-0.227959 -0.238535 -0.146738 76 0 153
0.237347 -0.575341 0.067557 76 0 153
0.014258 0.528629 0.176964 153 76 0
-0.012874 0.561484 -0.223365 76 0 153
0.270797 -0.362886 0.059144 76 0 153
-0.162026 0.191290 0.236352 76 0 153
-0.132465 0.676133 -0.167639 76 0 153
0.120711 -0.378017 0.210961 76 0 153
0.186385 -0.176644 -0.164690 153 76 0
-0.032716 -0.034762 0.256951 76 0 153
0.291640 -0.352383 0.009163 76 0 153
0.012962 0.998235 -0.082729 76 0 153
0.010105 -0.481762 -0.250781 153 76 0
0.202122 -0.413456 -0.191398 76 0 153
0.185073 -0.584012 0.159371 76 0 153
-0.125993 0.705149 0.067937 76 0 153
0.124268 0.780914 0.032658 76 0 153
0.226595 0.360441 -0.102681 76 0 153
-0.126573 0.388795 0.243783 76 0 153
0.101085 -0.629333 -0.233294 76 0 153
-0.220170 -0.306560 -0.112551 153 76 0
0.089871 -0.756830 0.252604 76 0 153
-0.190427 -0.584327 0.198528 76 0 153
-0.099981 0.919073 -0.052402 76 0 153
0.151269 -0.767289 -0.168629 76 0 153
0.241989 -0.186653 -0.063241 76 0 153
-0.131989 0.010373 -0.217878 76 0 153
-0.210004 0.116076 0.119069 153 76 0
0.050055 0.071667 -0.246132 153 76 0
0.118682 -0.402479 0.254529 76 0 153
0.018648 0.197691 -0.250238 153 76 0
-0.218905 0.711222 0.011860 76 0 153
0.175193 -0.202302 -0.236935 76 0 153
0.073033 0.279113 0.276851 76 0 153
0.008700 -0.819978 -0.154747 76 0 153
-0.103410 0.612323 0.075687 153 76 0
-0.027506 -0.819978 0.131470 76 0 153
-0.210171 -0.636837 -0.132571 153 76 0
-0.236183 -0.038940 -0.072280 153 76 0
-0.033514 -0.392640 0.256951 76 0 153
-0.089766 0.186978 0.271597 76 0 153
-0.172536 -0.413066 -0.180606 153 76 0
-0.094038 0.777862 0.084900 76 0 153
0.224526 -0.421298 -0.102170 153 76 0
0.141652 0.703287 -0.100520 76 0 153
0.078942 -0.451736 0.228565 76 0 153
0.111676 0.799182 0.056154 76 0 153
0.096806 0.911743 -0.004232 76 0 153
-0.140253 0.467126 -0.145445 76 0 153
-0.004621 -0.680663 0.256951 76 0 153
-0.067865 0.627924 0.102037 153 76 0
-0.184692 0.258441 -0.213911 76 0 153
-0.019950 -0.158273 0.284422 76 0 153
-0.176401 0.699336 -0.140165 76 0 153
-0.206710 -0.624404 -0.183540 76 0 153
0.151570 0.300368 0.239059 76 0 153
-0.286147 -0.636948 -0.029234 76 0 153
-0.018915 0.430685 -0.176279 153 76 0
-0.228862 0.133815 0.124871 76 0 153
0.024778 -0.819978 0.101649 76 0 153
0.244543 -0.399005 -0.007542 153 76 0
0.169761 0.578345 0.020098 153 76 0
0.289549 -0.127782 0.020224 76 0 153
-0.197615 -0.470995 0.186097 76 0 153
-0.049486 -0.705725 0.256951 76 0 153
-0.063740 0.440201 -0.235580 76 0 153
-0.215475 -0.132581 -0.122317 153 76 0
0.158359 0.535194 -0.110595 153 76 0
0.271895 0.361935 0.049606 76 0 153
-0.200129 -0.788792 0.150185 76 0 153
-0.221950 0.019636 -0.149391 76 0 153
0.050493 -0.800897 0.231064 76 0 153
-0.235315 0.190649 -0.086867 76 0 153
-0.050215 -0.184167 0.256951 76 0 153
0.098700 0.411811 0.165525 153 76 0
-0.114791 0.882458 -0.017193 76 0 153
0.233895 -0.588676 0.115392 76 0 153
0.021728 0.641752 0.119640 153 76 0
0.238049 0.344297 -0.078829 76 0 153
0.055801 -0.774169 0.192230 76 0 153
0.200681 0.647082 -0.072032 76 0 153
0.120967 -0.095543 -0.219348 153 76 0
-0.141853 0.152543 -0.210575 76 0 153
-0.188046 0.447535 0.129623 76 0 153
-0.187039 -0.156012 -0.217605 76 0 153
-0.024771 -0.417563 -0.249631 153 76 0
0.042657 -0.776304 -0.140388 76 0 153
0.125834 -0.103511 0.203272 153 76 0
0.129105 -0.179074 0.205952 76 0 153
-0.049701 -0.143748 -0.250203 76 0 153
-0.132561 -0.454344 -0.267066 76 0 153
0.097134 -0.816503 0.053602 76 0 153
-0.226764 0.192832 0.083692 153 76 0
0.242660 0.258196 -0.061223 76 0 153
0.191332 -0.756736 0.108090 153 76 0
0.105863 0.431282 -0.239222 76 0 153
-0.292113 -0.054571 -0.018734 76 0 153
-0.000862 -0.483865 0.285512 76 0 153
0.149716 -0.635923 -0.258421 76 0 153
-0.007846 0.998235 -0.046898 76 0 153
0.200168 -0.219216 -0.152534 76 0 153
-0.208831 -0.721225 0.114296 153 76 0
0.118367 0.617896 0.188757 76 0 153
-0.132567 0.225456 0.249522 76 0 153
0.186053 -0.009638 -0.219226 76 0 153
0.074217 0.229723 0.276552 76 0 153
0.086932 0.717886 -0.154777 76 0 153
-0.065843 -0.018215 0.278310 76 0 153
-0.121655 0.677900 -0.075589 153 76 0
-0.047630 0.280472 -0.246532 153 76 0
0.103538 0.583983 0.068689 153 76 0
-0.195872 0.097262 -0.195206 76 0 153
-0.008770 0.053945 0.256951 76 0 153
-0.049732 0.423063 -0.265331 76 0 153
-0.248975 0.332840 -0.110328 76 0 153
-0.246838 -0.174375 0.019911 76 0 153
-0.125249 -0.179401 -0.270067 76 0 153
-0.248552 -0.793601 -0.036874 76 0 153
0.108105 -0.144100 0.256254 76 0 153
-0.119020 0.793667 0.040607 76 0 153
-0.019438 0.047951 -0.250068 153 76 0
0.135109 0.359169 0.251660 76 0 153
-0.171433 -0.175350 -0.181762 153 76 0
0.229769 -0.021188 -0.142913 76 0 153
-0.106430 0.539060 -0.148531 153 76 0
0.044617 -0.816041 -0.182351 76 0 153
0.222310 -0.701317 -0.105795 153 76 0
-0.100370 0.952880 0.025479 76 0 153
0.021917 0.252253 0.236597 153 76 0
0.199485 -0.622145 -0.154252 76 0 153
-0.177489 0.523600 -0.023529 153 76 0
-0.234780 -0.059845 0.064046 153 76 0
-0.052920 0.445128 0.140756 153 76 0
-0.013411 0.732912 -0.143172 76 0 153
0.080523 0.450275 0.197420 76 0 153
0.059909 -0.678818 0.256951 76 0 153
-0.038792 0.662420 0.214100 76 0 153
0.203044 0.465802 0.010274 153 76 0
0.045831 -0.636784 0.237664 76 0 153
0.260133 0.048614 -0.090254 76 0 153
-0.024413 0.998235 -0.015330 76 0 153
-0.244843 0.230281 -0.003880 153 76 0
0.047766 0.018040 0.233311 153 76 0
-0.195727 -0.594002 -0.196279 76 0 153
0.089751 -0.420497 0.256929 76 0 153
-0.127000 -0.819978 -0.121093 76 0 153
0.215155 0.364351 -0.126494 76 0 153
-0.089996 -0.514773 0.256923 76 0 153
-0.120654 0.445805 -0.200167 76 0 153
0.038389 0.865544 0.088958 76 0 153
0.262573 -0.022065 0.065742 76 0 153
0.019006 0.507849 0.166391 153 76 0
0.068441 -0.298722 0.232310 76 0 153
0.214762 -0.355038 -0.123534 153 76 0
0.106588 -0.461935 0.264506 76 0 153
0.061258 -0.493144 0.279137 76 0 153
-0.239853 0.431278 0.081464 76 0 153
-0.159440 0.319158 0.183844 76 0 153
-0.180655 0.674894 0.124281 76 0 153
-0.211600 -0.022321 -0.138081 76 0 153
0.177235 0.555304 -0.089337 153 76 0
-0.131184 -0.776304 0.104016 76 0 153
-0.180113 -0.008879 -0.178787 76 0 153
-0.226578 -0.616118 -0.149132 76 0 153
-0.254151 -0.006512 0.088161 76 0 153
-0.176254 -0.111888 0.169305 76 0 153
-0.142446 0.153173 0.196910 76 0 153
-0.177650 -0.075192 -0.233603 76 0 153
0.041019 0.574482 -0.218716 76 0 153
-0.172068 -0.042000 -0.240845 76 0 153
-0.107595 0.390443 -0.214754 76 0 153
0.270018 -0.691798 -0.066022 76 0 153
-0.140116 0.565571 -0.111993 153 76 0
0.216273 -0.077823 0.153670 76 0 153
-0.220651 0.413966 -0.158109 76 0 153
0.243598 0.427197 0.067665 76 0 153
-0.186730 0.274824 0.197177 76 0 153
0.107566 -0.682120 0.256304 76 0 153
0.191479 0.238937 0.144629 153 76 0
0.139663 0.193862 -0.259344 76 0 153
0.231796 -0.654238 -0.132251 76 0 153
-0.046392 0.486557 0.174979 153 76 0
0.225145 0.381614 0.059563 153 76 0
0.099773 0.198174 0.267489 76 0 153
-0.288291 0.054750 -0.011629 76 0 153
0.206680 -0.157110 -0.175741 76 0 153
0.215445 0.286509 0.109098 153 76 0
0.169055 -0.135995 -0.189511 76 0 153
0.063945 -0.500657 -0.247287 76 0 153
0.114738 0.405727 -0.257553 76 0 153
0.117574 -0.609206 -0.272221 76 0 153
-0.217182 -0.525173 0.144428 76 0 153
0.149311 -0.520947 0.240517 76 0 153
0.159855 0.569373 -0.153100 76 0 153
-0.245490 -0.579082 0.103160 76 0 153
-0.053405 -0.767652 0.196111 153 76 0
0.065258 -0.102237 -0.243241 153 76 0
0.199674 0.322465 0.133942 153 76 0
0.017447 0.700103 -0.212759 76 0 153
-0.094303 -0.818960 0.192516 76 0 153
0.021758 0.064445 0.284343 76 0 153
-0.240456 -0.209563 -0.050142 153 76 0
0.277962 -0.369425 -0.052284 76 0 153
-0.271952 -0.440572 0.049571 76 0 153
-0.219188 -0.598460 0.140958 76 0 153
-0.255496 0.307562 0.085837 76 0 153
0.104153 -0.705672 0.218106 76 0 153
0.235524 0.102714 0.112571 76 0 153
-0.246560 0.275049 -0.035262 76 0 153
-0.191306 -0.776223 -0.044763 76 0 153
-0.137063 -0.105638 -0.265037 76 0 153
-0.117807 -0.248817 -0.272496 76 0 153
0.093194 0.665821 0.108617 153 76 0
-0.223035 0.596780 0.050578 76 0 153
-0.174642 -0.325298 -0.184471 76 0 153
0.133444 0.668087 0.172664 76 0 153
0.015874 0.414847 0.254070 76 0 153
0.273782 0.074091 0.046318 76 0 153
-0.068126 -0.090858 0.256951 76 0 153
-0.181104 -0.116649 -0.227877 76 0 153
-0.055349 -0.816041 -0.062397 76 0 153
0.243408 0.353155 -0.051283 76 0 153
-0.076519 -0.459952 0.225827 153 76 0
0.176654 0.617906 -0.125506 76 0 153
0.269382 -0.293072 -0.067122 76 0 153
-0.020100 -0.816041 -0.074299 76 0 153
-0.056722 0.998235 0.042229 76 0 153
0.139032 0.703249 -0.140527 76 0 153
-0.210944 0.575643 -0.056024 76 0 153
0.015507 -0.695489 0.256951 76 0 153
0.261345 -0.509566 -0.081076 76 0 153
0.283952 -0.130351 -0.037325 76 0 153
0.131799 0.715386 0.164393 76 0 153
0.123908 0.717847 -0.155009 76 0 153
-0.008315 -0.349151 0.285067 76 0 153
-0.022294 0.207854 -0.253986 76 0 153
0.222319 -0.551462 0.104748 76 0 153
-0.234982 -0.581991 0.064309 153 76 0
-0.247787 0.350534 -0.018401 76 0 153
0.023894 -0.238440 0.256951 76 0 153
0.184795 0.119672 -0.173346 76 0 153
-0.015634 -0.707974 0.284507 76 0 153
0.244315 -0.222474 -0.012920 153 76 0
-0.239906 -0.630100 -0.074485 76 0 153
0.185505 -0.731264 0.149165 76 0 153
0.071201 -0.427342 0.276974 76 0 153
0.126398 -0.816375 0.091421 76 0 153
0.262607 -0.252315 -0.086638 76 0 153
-0.012880 -0.114149 0.285158 76 0 153
0.189204 -0.816112 -0.001855 76 0 153
0.097590 -0.755996 -0.208591 153 76 0
-0.248104 -0.379982 -0.023499 76 0 153
0.039513 0.545096 -0.199974 153 76 0
-0.109874 -0.445660 0.256077 76 0 153
-0.151536 -0.569426 -0.203143 76 0 153
0.243321 0.063770 0.099068 76 0 153
-0.201138 -0.239413 0.180003 76 0 153
-0.155377 -0.375152 0.236618 76 0 153
0.292299 0.279129 0.001624 76 0 153
0.240929 -0.678560 0.056167 76 0 153
-0.200016 0.717820 -0.069904 76 0 153
-0.132134 0.593122 -0.005447 153 76 0
0.078191 0.910685 0.073406 76 0 153
0.079206 0.642187 -0.217677 76 0 153
0.213600 -0.611030 -0.125643 153 76 0
0.145783 -0.779150 0.211566 76 0 153
0.054313 -0.565795 0.256951 76 0 153
-0.210012 0.317595 -0.170029 76 0 153
0.050404 0.593447 -0.170784 153 76 0
-0.203267 0.393125 -0.104268 153 76 0
-0.181727 -0.415212 0.157250 153 76 0
0.105846 0.511498 -0.088476 76 0 153
0.099051 0.950200 0.029577 76 0 153
-0.092108 -0.125046 0.270677 76 0 153
-0.270974 -0.544873 0.059022 76 0 153
0.113480 0.601943 -0.135989 153 76 0
0.051979 0.437382 -0.250097 76 0 153
-0.203985 -0.666041 0.128134 153 76 0
-0.087938 0.441681 0.219242 76 0 153
-0.112189 0.802947 -0.000252 76 0 153
0.177953 0.323474 0.212113 76 0 153
0.284899 -0.058923 -0.033770 76 0 153
-0.195267 0.438884 -0.156779 76 0 153
-0.244155 -0.308799 -0.017038 153 76 0
0.191028 -0.314098 0.152026 76 0 153
0.177814 -0.166407 0.161585 153 76 0
-0.055010 0.921129 -0.084093 76 0 153
-0.000813 -0.772431 -0.117049 153 76 0
0.047991 0.447130 0.222272 76 0 153
-0.021847 0.253580 0.236554 153 76 0
0.172171 0.487296 -0.077670 153 76 0
-0.204286 0.661005 0.046629 76 0 153
-0.085668 0.719788 -0.101336 76 0 153
-0.147643 0.570819 -0.165485 76 0 153
-0.075759 0.318853 -0.243655 76 0 153
-0.146734 -0.350047 -0.255495 76 0 153
-0.236190 -0.677069 -0.084618 76 0 153
0.191327 0.550660 0.044488 153 76 0
-0.228049 -0.265884 -0.146583 76 0 153
-0.050501 0.466560 0.190340 76 0 153
-0.138290 0.016588 -0.264484 76 0 153
0.072390 0.498300 -0.172786 153 76 0
0.089037 0.604354 0.144934 153 76 0
-0.054489 -0.756619 0.256257 76 0 153
-0.056135 0.703240 -0.196802 76 0 153
-0.133980 0.658306 0.107478 153 76 0
0.149217 0.660258 -0.099531 153 76 0
-0.061350 0.877782 0.092357 76 0 153
0.178886 0.308658 0.160533 153 76 0
0.174924 -0.276077 0.164761 153 76 0
0.129566 -0.352075 0.254938 76 0 153
-0.040979 0.521368 0.164014 153 76 0
0.011044 0.053099 0.237531 153 76 0
-0.019536 -0.628023 0.284589 76 0 153
0.126255 0.055959 0.256032 76 0 153
0.047461 0.912835 -0.106843 76 0 153
-0.160378 0.064722 -0.250943 76 0 153
-0.033573 0.084555 0.239291 76 0 153
-0.243289 0.145300 0.099220 76 0 153
-0.018946 0.022409 0.284653 76 0 153
0.061433 -0.814075 -0.231306 76 0 153
-0.173714 0.636231 -0.151079 76 0 153
-0.241824 0.365201 -0.049628 76 0 153
-0.210621 -0.661723 -0.139701 76 0 153
0.192980 0.174332 -0.162706 76 0 153
0.003837 0.004082 -0.255413 76 0 153
-0.104747 -0.815912 -0.172842 76 0 153
-0.175265 -0.208127 0.223666 76 0 153
-0.271960 0.405680 -0.011180 76 0 153
0.117772 0.668152 0.083111 153 76 0
-0.236428 -0.550532 0.059477 153 76 0
0.215650 -0.685813 -0.121849 153 76 0
0.190846 -0.753960 -0.199304 76 0 153
0.122888 -0.070491 -0.223317 76 0 153
-0.142991 -0.347636 0.248944 76 0 153
0.149953 -0.819978 -0.007995 76 0 153
-0.067078 -0.677742 0.233171 76 0 153
0.040400 -0.819978 0.134848 76 0 153
0.160256 -0.229901 -0.192241 153 76 0
0.205605 -0.556218 -0.138878 153 76 0
-0.031221 -0.198449 -0.248917 153 76 0
-0.191288 0.554394 -0.113751 76 0 153
-0.095271 0.866089 0.032353 76 0 153
-0.186300 0.716868 0.101129 76 0 153
-0.116701 0.694767 -0.196349 76 0 153
0.179857 0.030501 -0.179000 76 0 153
-0.044736 -0.211414 0.237183 76 0 153
-0.109708 0.529073 0.067902 153 76 0
0.240251 -0.493515 0.104387 76 0 153
0.220606 0.449537 -0.071030 76 0 153
0.099070 -0.816459 0.023507 76 0 153
0.095322 -0.595474 0.256854 76 0 153
0.050342 0.481005 -0.185183 153 76 0
-0.085045 0.488213 0.159318 153 76 0
0.073858 -0.819978 -0.114545 76 0 153
0.218510 -0.282843 0.102724 153 76 0
0.252682 -0.285055 0.089953 76 0 153
-0.234119 -0.030173 0.076616 76 0 153
-0.128811 -0.489931 0.201395 153 76 0
0.176303 0.703242 0.079950 76 0 153
-0.002399 -0.355204 0.237868 153 76 0
-0.182077 0.717867 -0.000928 76 0 153
0.287039 0.106715 0.011220 76 0 153
0.047424 0.555177 0.183850 153 76 0
-0.050212 -0.470186 0.256951 76 0 153
-0.066053 0.525404 0.160792 153 76 0
-0.127855 0.641208 -0.121594 153 76 0
0.032850 0.093565 0.235160 153 76 0
-0.214399 0.035065 -0.124789 153 76 0
0.242894 -0.194661 0.017143 153 76 0
0.107337 0.749641 -0.060332 76 0 153
0.241253 -0.143204 -0.043412 153 76 0
-0.239708 -0.406191 0.113174 76 0 153
0.124605 0.607189 -0.179853 76 0 153
0.007049 0.307695 0.256951 76 0 153
-0.214853 0.599108 -0.013477 76 0 153
0.166261 -0.422371 -0.187190 153 76 0
-0.009167 0.914702 -0.102109 76 0 153
0.164396 0.270640 0.174688 153 76 0
0.155518 0.011856 0.186785 76 0 153
0.217865 -0.318828 -0.156376 76 0 153
-0.172343 0.501291 -0.042799 153 76 0
0.131734 0.495784 -0.013739 153 76 0
0.035968 0.503814 0.118834 153 76 0
-0.133901 -0.484917 0.253368 76 0 153
0.111680 0.654406 -0.133538 153 76 0
0.226370 -0.524985 0.084499 153 76 0
-0.200542 0.277136 -0.194231 76 0 153
-0.105712 0.941074 -0.021223 76 0 153
0.019658 -0.819978 -0.132146 76 0 153
-0.111531 0.459406 0.174318 76 0 153
0.067369 -0.458957 0.277974 76 0 153
-0.245221 -0.496017 -0.109753 76 0 153
-0.198070 -0.514213 0.177507 76 0 153
0.059570 0.642116 0.196898 76 0 153
-0.069813 -0.772448 -0.075361 153 76 0
0.084687 0.252210 0.256951 76 0 153
0.040359 0.637097 -0.173146 153 76 0
-0.155556 0.339466 -0.254385 76 0 153
0.133195 0.554394 0.177391 76 0 153
0.241021 0.360267 -0.122414 76 0 153
0.193717 -0.240738 0.148537 76 0 153
0.005244 -0.816375 0.160977 76 0 153
0.015675 -0.378392 0.285002 76 0 153
0.183120 0.413359 0.186358 76 0 153
0.036196 -0.580025 0.234748 153 76 0
0.174990 -0.493932 0.170429 76 0 153
-0.281812 -0.632877 0.039949 76 0 153
-0.073481 0.748205 -0.119874 76 0 153
-0.201932 -0.815451 0.104022 76 0 153
0.241405 0.175205 0.029027 153 76 0
-0.037091 0.589604 -0.128807 153 76 0
-0.131002 -0.819978 -0.078140 76 0 153
-0.258220 -0.040625 0.074039 76 0 153
0.080699 -0.055762 -0.237670 153 76 0
-0.263252 -0.178383 0.065470 76 0 153
-0.132265 -0.430249 0.199043 153 76 0
-0.060615 0.601541 0.158768 153 76 0
-0.091348 -0.116785 0.219700 153 76 0
-0.259528 0.268737 0.071110 76 0 153
-0.276200 -0.376092 -0.063217 76 0 153
0.025509 -0.023160 0.240231 76 0 153
-0.157610 -0.181293 0.180047 153 76 0
-0.144112 -0.619224 -0.257318 76 0 153
0.229639 0.294274 -0.100501 76 0 153
-0.115963 0.679083 0.071700 153 76 0
-0.040301 -0.776304 -0.097326 76 0 153
0.067715 0.532723 0.168141 153 76 0
-0.121029 0.505873 0.052756 76 0 153
0.108835 0.703295 0.118163 76 0 153
-0.051416 0.636038 0.161399 153 76 0
0.075575 0.954895 0.066861 76 0 153
0.061554 0.266525 0.256951 76 0 153
-0.118263 -0.541047 -0.221048 153 76 0
-0.155063 0.078882 -0.200429 76 0 153
0.035981 0.983635 -0.040370 76 0 153
0.145860 -0.335395 -0.256026 76 0 153
0.202430 -0.733464 0.116017 153 76 0
-0.114530 -0.705596 -0.271897 76 0 153
0.086756 -0.146474 0.221593 153 76 0
-0.009792 0.379585 0.233788 76 0 153
0.097585 0.355729 -0.233315 76 0 153
-0.220160 -0.421883 -0.122931 76 0 153
0.212647 0.265406 -0.136256 76 0 153
-0.081015 -0.335198 -0.241609 76 0 153
-0.132963 -0.776304 0.001331 76 0 153
-0.291073 -0.645019 0.012586 76 0 153
0.210061 -0.701020 0.164451 76 0 153
-0.246995 -0.063243 -0.031943 76 0 153
-0.263955 0.096442 0.071179 76 0 153
0.288574 -0.616911 0.022984 76 0 153
0.113206 0.682902 -0.181775 76 0 153
-0.037928 -0.353684 -0.247956 153 76 0
-0.138357 0.663931 0.169300 76 0 153
-0.088199 0.131353 0.272190 76 0 153
0.168717 0.529633 -0.049235 153 76 0
0.135925 0.404635 -0.177851 76 0 153
0.037486 0.117671 0.238767 76 0 153
-0.105670 0.743598 -0.066738 76 0 153
0.213757 -0.530199 0.150267 76 0 153
0.120942 -0.380417 -0.219558 153 76 0
0.108305 0.491000 0.136609 153 76 0
-0.050193 0.531503 -0.185753 153 76 0
0.150444 -0.089304 0.239786 76 0 153
0.160790 0.575851 0.159995 76 0 153
-0.181777 0.184990 -0.218960 76 0 153
0.077138 0.679395 -0.215654 76 0 153
-0.191098 -0.220600 -0.203786 76 0 153
-0.196397 0.269143 0.145126 76 0 153
0.159036 0.620752 -0.080829 153 76 0
0.114549 0.892848 -0.005998 76 0 153
0.038880 0.428532 -0.174881 153 76 0
0.006128 0.750381 -0.141221 76 0 153
0.242124 -0.307991 -0.036578 153 76 0
0.244260 0.136339 0.001006 153 76 0
0.013165 -0.270238 0.241123 76 0 153
0.287689 0.000800 -0.019243 76 0 153
-0.030919 0.703309 -0.160579 76 0 153
0.110518 -0.505811 0.263066 76 0 153
0.232115 -0.595876 -0.094179 76 0 153
0.033551 0.340731 0.234936 153 76 0
-0.096425 -0.101426 0.256828 76 0 153
0.240469 -0.738721 -0.005427 76 0 153
-0.154641 -0.156201 0.182323 153 76 0
-0.069048 0.985492 -0.079766 76 0 153
-0.281945 0.092579 0.030082 76 0 153
0.259788 -0.345305 -0.083773 76 0 153
-0.289887 0.181319 0.019263 76 0 153
-0.132215 0.018696 0.203760 76 0 153
0.185764 -0.381022 -0.172085 76 0 153
-0.050146 0.375562 0.224977 153 76 0
0.238816 0.306377 -0.120092 76 0 153
0.172544 0.375797 -0.236561 76 0 153
0.034873 0.269659 0.256951 76 0 153
0.112925 0.563846 0.053743 153 76 0
0.149247 0.068547 0.191663 76 0 153
-0.043585 -0.728105 0.278342 76 0 153
0.053186 0.898156 0.076439 76 0 153
0.208195 0.248453 -0.173112 76 0 153
0.088760 0.898835 -0.076203 76 0 153
-0.221246 -0.323245 0.107631 76 0 153
0.084430 0.316589 0.256951 76 0 153
0.011584 0.983635 -0.015297 76 0 153
-0.127964 -0.401649 0.255754 76 0 153
-0.168344 0.649576 0.008534 153 76 0
0.258017 -0.595225 0.081396 76 0 153
0.132937 0.703236 0.142518 76 0 153
0.219807 0.617417 -0.069322 76 0 153
0.119878 0.833577 0.019181 76 0 153
0.117384 -0.233751 0.207922 153 76 0
0.209001 0.394191 -0.087793 153 76 0
0.226601 -0.118904 0.128037 76 0 153
0.058847 0.038091 0.279554 76 0 153
-0.155722 0.612673 -0.173807 76 0 153
0.015719 -0.776304 0.106604 76 0 153
-0.099003 0.720807 0.072484 76 0 153
0.232785 -0.140900 0.117315 76 0 153
-0.243308 -0.007518 0.015235 153 76 0
-0.169731 0.717884 -0.031841 76 0 153
0.015695 0.617671 -0.233573 76 0 153
0.151878 -0.281694 -0.198240 153 76 0
0.147334 0.444091 -0.194157 76 0 153
0.181019 -0.017949 -0.171303 153 76 0
0.242106 -0.336204 0.101172 76 0 153
0.126278 0.129356 0.256085 76 0 153
-0.173330 0.546697 -0.052569 153 76 0
-0.246407 -0.482348 -0.036429 76 0 153
-0.242869 -0.720145 0.101393 76 0 153
0.037112 -0.176448 0.238477 76 0 153
-0.019555 0.717847 0.185326 76 0 153
0.032301 0.457930 -0.217929 76 0 153
-0.218116 -0.051764 -0.156158 76 0 153
-0.192259 0.137307 -0.208568 76 0 153
0.197464 0.077157 -0.191717 76 0 153
-0.144003 -0.291281 0.243757 76 0 153
0.104961 0.468190 0.089019 153 76 0
-0.105194 -0.819978 -0.132002 76 0 153
0.242776 -0.275520 -0.113234 76 0 153
-0.288898 0.148181 0.022398 76 0 153
0.049584 0.686888 0.196271 76 0 153
-0.222299 -0.669950 0.094464 153 76 0
0.211360 0.192577 -0.167628 76 0 153
0.052189 0.492026 -0.133607 76 0 153
0.153400 0.452599 -0.158054 76 0 153
0.234455 0.041044 0.121106 76 0 153
0.071554 0.648403 0.153964 153 76 0
0.259360 -0.563415 0.071314 76 0 153
-0.132845 -0.630180 0.203765 76 0 153
0.071403 -0.819978 -0.053242 76 0 153
0.193547 -0.716651 -0.198497 76 0 153
0.243481 -0.585859 0.012482 153 76 0
-0.109068 0.749074 0.043256 76 0 153
0.230653 0.554752 -0.028641 76 0 153
-0.244459 -0.259510 -0.051236 76 0 153
-0.223048 0.010607 0.092657 153 76 0
-0.127098 0.783975 -0.032808 76 0 153
0.095803 -0.319808 0.269137 76 0 153
0.181861 0.283976 -0.170391 153 76 0
-0.123979 -0.080400 -0.222723 76 0 153
0.221765 -0.106581 0.095613 153 76 0
0.200840 -0.684909 0.180447 76 0 153
-0.261546 -0.246521 -0.088574 76 0 153
-0.188034 -0.228158 0.149176 153 76 0
-0.269405 -0.365791 0.061737 76 0 153
0.223635 0.216066 0.091101 153 76 0
-0.006500 -0.281686 0.241572 76 0 153
0.069048 -0.772114 0.120060 153 76 0
0.270474 -0.765665 0.041853 76 0 153
0.272869 -0.564719 -0.068431 76 0 153
-0.200475 -0.545350 -0.194347 76 0 153
-0.146334 -0.742301 0.181260 76 0 153
0.054531 -0.776304 -0.048387 76 0 153
0.275386 -0.104446 0.043505 76 0 153
0.209232 0.676351 0.000338 76 0 153
-0.244929 0.104409 -0.006488 153 76 0
-0.094821 -0.819978 -0.101471 76 0 153
-0.103673 0.598840 0.197705 76 0 153
-0.158864 0.635997 -0.082212 153 76 0
-0.145606 0.539543 -0.135338 153 76 0
-0.008972 -0.583038 0.237589 153 76 0
0.241462 0.095952 0.028563 153 76 0
0.176730 0.498528 -0.000345 153 76 0
-0.210677 -0.169174 0.163459 76 0 153
0.113981 -0.816041 -0.141724 76 0 153
-0.229369 0.356960 -0.097322 76 0 153
0.237750 -0.289843 -0.078642 76 0 153
-0.280044 -0.158697 -0.048057 76 0 153
0.218988 0.269767 -0.114922 153 76 0
0.171214 -0.388359 -0.241758 76 0 153
-0.227367 0.035274 -0.106113 76 0 153
0.240816 -0.116693 0.033791 153 76 0
-0.189252 -0.037141 0.200563 76 0 153
-0.037435 -0.496013 0.256951 76 0 153
-0.064814 -0.261334 0.278324 76 0 153
-0.019327 0.147471 0.284611 76 0 153
-0.208892 -0.563116 0.121438 153 76 0
-0.155311 -0.060312 0.241100 76 0 153
0.147326 -0.131093 -0.255368 76 0 153
0.237287 -0.028510 0.055098 153 76 0
0.231146 -0.727130 -0.133376 76 0 153
-0.109072 0.435574 -0.139989 76 0 153
0.052636 0.676848 -0.169134 153 76 0
-0.180448 0.439348 0.150891 76 0 153
0.005918 -0.766435 -0.218257 153 76 0
0.131664 -0.437031 -0.218046 76 0 153
-0.164190 -0.816082 0.120161 76 0 153
0.008824 0.697793 0.200850 76 0 153
-0.209074 0.143745 -0.171782 76 0 153
0.076280 0.103683 0.256951 76 0 153
0.051443 0.269593 -0.249972 76 0 153
-0.206708 -0.336058 0.125314 153 76 0
-0.229116 -0.510954 0.131516 76 0 153
0.239169 0.201025 0.113964 76 0 153
0.195322 -0.611552 -0.195420 76 0 153
0.185238 -0.099790 -0.165929 153 76 0
0.227376 0.097649 0.082074 153 76 0
-0.126653 -0.032321 0.202838 153 76 0
-0.240422 -0.389600 0.037355 153 76 0
-0.001696 -0.606979 -0.255518 76 0 153
-0.080299 0.569800 0.159860 153 76 0
0.052070 0.930158 -0.084673 76 0 153
0.036197 0.767930 0.120976 76 0 153
0.197223 0.090724 -0.157195 76 0 153
-0.049827 -0.594029 0.256951 76 0 153
-0.098321 0.347276 0.267826 76 0 153
0.179866 0.645759 -0.118048 76 0 153
-0.168604 -0.776304 -0.048149 76 0 153
-0.278832 -0.325101 0.045397 76 0 153
0.018770 -0.419522 0.240632 76 0 153
0.156877 -0.693230 -0.248367 76 0 153
-0.173439 -0.284653 -0.185568 76 0 153
-0.131104 -0.331365 -0.213858 153 76 0
-0.288464 0.124273 -0.006986 76 0 153
0.006279 0.840925 0.100033 76 0 153
-0.199423 -0.511635 0.141189 76 0 153
0.241332 0.202522 0.029612 153 76 0
0.165636 0.247492 -0.192259 76 0 153
0.239481 0.389229 0.105744 76 0 153
-0.000470 0.939854 0.086375 76 0 153
-0.210168 -0.466005 0.156530 76 0 153
-0.149137 -0.670372 0.245175 76 0 153
-0.109796 -0.359628 -0.225101 153 76 0
-0.046166 0.429088 -0.173053 153 76 0
-0.157716 0.129696 -0.247762 76 0 153
-0.039703 0.561238 -0.219850 76 0 153
-0.201353 -0.256311 -0.186085 76 0 153
-0.153485 0.433020 -0.076718 153 76 0
0.218601 0.347191 -0.162123 76 0 153
0.243840 0.345170 -0.012427 153 76 0
0.180625 0.459355 -0.103222 76 0 153
0.113211 0.481119 -0.082180 153 76 0
0.103226 -0.057158 -0.227980 153 76 0
0.227708 -0.685932 0.081189 153 76 0
