ply
format ascii 1.0
element vertex 1277
property float x
property float y
property float z
property uchar red
property uchar green
property uchar blue
end_header
-0.110139 0.107846 0.261138 76 0 153
0.289112 -0.566831 -0.028394 76 0 153
-0.137748 0.443456 -0.199360 76 0 153
0.241695 0.171892 -0.118990 76 0 153
0.085723 -0.214229 0.224231 153 76 0
0.202231 0.293683 0.174134 76 0 153
0.123000 0.241191 -0.222000 153 76 0
0.179077 -0.290426 -0.177426 76 0 153
-0.179625 0.694298 -0.112715 76 0 153
-0.070773 -0.504546 0.258919 76 0 153
-0.234176 0.227824 -0.132083 76 0 153
-0.290093 0.353191 0.006819 76 0 153
0.128414 0.703269 0.122414 76 0 153
0.215896 -0.151961 -0.128368 76 0 153
0.165796 0.595974 0.046982 153 76 0
-0.113304 0.723717 -0.093361 76 0 153
0.032609 0.009271 0.237300 153 76 0
-0.291159 -0.480140 -0.013152 76 0 153
0.121271 -0.452577 -0.269720 76 0 153
0.220406 -0.683214 -0.117479 153 76 0
-0.256201 0.112231 -0.093936 76 0 153
0.157302 0.290423 -0.250798 76 0 153
-0.177098 0.040925 -0.230946 76 0 153
-0.006277 -0.477381 -0.253982 153 76 0
-0.250908 -0.068671 0.089894 76 0 153
-0.208701 -0.232066 0.125664 153 76 0
0.003071 0.677035 0.166416 153 76 0
-0.002926 0.391224 0.276840 76 0 153
-0.022235 0.757588 0.124845 76 0 153
-0.153407 0.629583 -0.090201 153 76 0
0.068736 0.302904 -0.244477 153 76 0
0.042950 0.399880 0.212489 153 76 0
-0.223438 -0.561565 0.137472 76 0 153
0.129802 -0.818009 0.106910 76 0 153
-0.216609 0.344554 -0.162511 76 0 153
-0.241109 -0.776199 0.106866 76 0 153
-0.279027 -0.125584 -0.054399 76 0 153
0.144150 0.003575 0.247033 76 0 153
0.075988 0.983636 -0.035519 76 0 153
-0.196138 0.543427 -0.015521 153 76 0
0.066178 0.827173 0.097844 76 0 153
-0.027516 0.164448 0.281776 76 0 153
0.019498 0.503368 0.124166 76 0 153
-0.004959 0.717825 -0.213573 76 0 153
0.099969 0.562106 0.186357 76 0 153
-0.085935 -0.123926 0.271163 76 0 153
0.239750 -0.103293 -0.122358 76 0 153
0.212749 -0.039049 -0.169126 76 0 153
-0.156984 0.638043 0.135619 76 0 153
-0.241389 0.389024 -0.119590 76 0 153
-0.252373 0.006014 -0.100566 76 0 153
-0.290575 -0.432339 -0.017591 76 0 153
-0.072551 0.998236 -0.005861 76 0 153
-0.209677 0.653620 -0.022934 76 0 153
0.175843 0.017517 0.168432 153 76 0
-0.063433 -0.112641 0.233247 76 0 153
-0.024589 0.364901 0.258919 76 0 153
0.135885 0.421003 -0.135036 153 76 0
0.213167 0.372528 0.155192 76 0 153
-0.222176 -0.482414 -0.113304 153 76 0
0.101033 0.727137 0.091429 76 0 153
-0.067385 0.156360 -0.245054 76 0 153
0.001043 0.859839 -0.111174 76 0 153
0.016023 -0.818009 -0.113276 76 0 153
0.184869 0.175647 -0.169879 76 0 153
-0.253102 0.425067 -0.072948 76 0 153
0.000299 0.027467 0.285354 76 0 153
-0.148199 0.099072 -0.257814 76 0 153
0.066352 0.716152 -0.211571 76 0 153
0.163977 -0.513580 -0.245676 76 0 153
0.054219 0.493166 -0.129694 76 0 153
0.017595 0.794813 -0.118477 76 0 153
-0.082491 -0.818009 0.091298 76 0 153
-0.051613 0.279168 0.278603 76 0 153
-0.016730 -0.185715 -0.272129 153 76 0
-0.038361 0.118099 0.280348 76 0 153
-0.041065 -0.026037 0.279992 76 0 153
-0.009964 0.071290 0.284087 76 0 153
0.101555 -0.608920 -0.230883 153 76 0
0.237665 0.171175 0.062603 76 0 153
0.012849 0.341121 0.258919 76 0 153
-0.223744 -0.240146 0.096310 153 76 0
0.205403 0.456570 -0.063155 76 0 153
-0.051836 -0.537325 0.278574 76 0 153
0.247640 -0.347389 -0.010708 153 76 0
-0.122160 0.583324 -0.131830 153 76 0
0.076845 0.898704 0.054522 76 0 153
0.119031 0.195368 -0.270648 76 0 153
0.194707 -0.585829 -0.200375 76 0 153
0.193078 -0.818009 -0.099367 76 0 153
0.003090 -0.331138 0.241186 153 76 0
0.146943 0.604471 -0.100414 153 76 0
-0.093416 -0.537466 0.221061 153 76 0
-0.181619 0.228174 -0.174168 153 76 0
0.109384 -0.813859 0.197130 76 0 153
-0.253328 0.224720 0.085702 76 0 153
0.042351 0.369634 -0.246121 76 0 153
-0.091123 -0.234269 0.222011 76 0 153
-0.016362 -0.595127 0.258919 76 0 153
0.163128 0.282055 -0.191590 76 0 153
-0.286675 -0.144534 0.027942 76 0 153
0.046218 -0.309617 0.235508 153 76 0
0.236614 -0.003725 0.114580 76 0 153
-0.243248 0.357031 -0.040880 76 0 153
-0.167608 0.717893 -0.009184 76 0 153
-0.030474 -0.774209 0.066693 153 76 0
0.047269 -0.200782 0.279170 76 0 153
0.250181 -0.080695 0.091081 76 0 153
0.230645 0.388219 -0.044529 153 76 0
-0.165743 0.130530 0.231141 76 0 153
0.174211 -0.216196 -0.183086 153 76 0
-0.244319 0.322833 0.101305 76 0 153
-0.172849 -0.159704 0.170952 153 76 0
-0.154302 -0.481122 -0.253131 76 0 153
0.048026 0.179555 0.258919 76 0 153
0.122712 0.428714 0.120568 76 0 153
-0.022630 0.695359 0.213852 76 0 153
-0.022127 -0.818009 -0.133618 76 0 153
-0.144923 0.538369 0.118148 153 76 0
-0.118354 -0.355689 -0.223942 153 76 0
0.196798 -0.773363 -0.191784 76 0 153
-0.075942 0.448483 -0.221296 76 0 153
0.035632 0.552577 -0.199660 153 76 0
-0.245660 0.111441 -0.026059 76 0 153
-0.183424 0.026958 0.158605 76 0 153
0.240377 -0.594066 -0.065872 153 76 0
0.179082 0.484236 -0.057153 153 76 0
-0.001245 0.703300 -0.169878 76 0 153
-0.019218 0.216699 0.258919 76 0 153
0.232780 -0.703444 -0.134431 76 0 153
-0.196858 0.320004 -0.154307 153 76 0
-0.119622 0.476630 -0.080840 153 76 0
0.205378 0.040643 -0.143150 153 76 0
0.240235 -0.279919 0.053741 76 0 153
-0.092981 0.291661 0.268245 76 0 153
0.179262 -0.294489 0.213917 76 0 153
-0.199587 0.425808 -0.171791 76 0 153
-0.138148 0.731922 -0.010067 76 0 153
0.072657 0.542657 0.174646 153 76 0
-0.064105 -0.213813 -0.246369 153 76 0
0.070206 -0.142706 0.276150 76 0 153
0.243216 0.188161 0.031099 153 76 0
0.217710 -0.492103 0.147323 76 0 153
-0.170006 -0.752758 -0.163377 76 0 153
-0.154847 -0.176926 0.239503 76 0 153
0.195909 0.344463 0.142281 76 0 153
0.185043 -0.072932 0.156441 153 76 0
-0.023748 -0.348760 0.238472 76 0 153
0.221123 -0.118715 -0.154621 76 0 153
0.020092 0.830715 -0.112913 76 0 153
0.088087 0.587634 -0.218221 76 0 153
0.029076 0.659432 0.215589 76 0 153
-0.182531 -0.815826 -0.142550 76 0 153
0.197936 0.144687 -0.194783 76 0 153
0.101159 0.877446 -0.013906 76 0 153
-0.033539 0.703303 -0.164313 76 0 153
0.105074 -0.060020 0.263219 76 0 153
0.175840 0.347710 -0.181645 76 0 153
0.195721 0.306781 -0.155736 153 76 0
-0.076405 -0.553682 0.275111 76 0 153
-0.112051 0.674581 -0.201582 76 0 153
0.142263 -0.691744 -0.261025 76 0 153
-0.220309 -0.640372 0.104602 153 76 0
-0.204453 0.306075 -0.183566 76 0 153
-0.252383 -0.345963 -0.100549 76 0 153
-0.018873 -0.779928 -0.270854 76 0 153
-0.029270 0.018366 0.237745 153 76 0
0.228539 -0.259840 0.128566 76 0 153
0.035608 0.215859 0.258919 76 0 153
-0.249267 0.183202 -0.105945 76 0 153
-0.078893 -0.479962 0.258919 76 0 153
-0.271311 -0.547877 0.054554 76 0 153
-0.017423 0.309806 0.258919 76 0 153
0.243851 0.019532 0.026276 76 0 153
-0.225848 0.366387 -0.098640 153 76 0
-0.023671 -0.007976 0.258919 76 0 153
0.196357 -0.148506 0.141697 153 76 0
-0.190748 -0.513627 -0.207304 76 0 153
-0.241871 0.235708 -0.054836 153 76 0
0.050595 -0.001848 0.258919 76 0 153
0.041470 -0.390474 -0.249343 153 76 0
0.058853 -0.013692 0.277645 76 0 153
0.184118 0.648634 0.098519 76 0 153
0.105402 0.582226 -0.083078 153 76 0
0.128613 -0.435844 -0.218075 76 0 153
-0.213744 -0.062129 0.154263 76 0 153
0.105649 0.605693 0.180631 76 0 153
0.018267 0.014153 0.258919 76 0 153
-0.267159 -0.309210 -0.074955 76 0 153
-0.176154 0.630499 -0.124732 76 0 153
0.093756 -0.082784 0.220904 76 0 153
0.003718 -0.774209 0.172174 153 76 0
-0.084272 0.717840 0.172262 76 0 153
-0.042932 -0.462905 -0.249156 153 76 0
-0.092335 0.701829 -0.207640 76 0 153
-0.201343 0.371107 0.129313 153 76 0
0.231060 0.218397 -0.137409 76 0 153
-0.035028 0.504154 0.166828 153 76 0
0.222904 -0.549796 0.098239 76 0 153
-0.149600 0.703278 0.086126 76 0 153
-0.243830 -0.023548 0.026751 76 0 153
0.209951 -0.534761 0.160761 76 0 153
0.157943 -0.818009 -0.078283 76 0 153
0.186785 0.400595 -0.127854 76 0 153
0.211999 0.591431 -0.039050 76 0 153
0.178420 -0.818009 -0.008479 76 0 153
-0.028390 0.032249 -0.251071 153 76 0
0.068563 0.612041 0.153000 153 76 0
-0.206572 0.347380 0.128438 153 76 0
0.289102 -0.540602 0.015255 76 0 153
0.223522 -0.281884 0.096746 153 76 0
0.281620 -0.225487 0.036628 76 0 153
0.291671 -0.503728 -0.008955 76 0 153
0.267228 0.165100 -0.074765 76 0 153
0.058977 0.752622 0.098103 76 0 153
0.041375 -0.129649 0.258919 76 0 153
0.115638 -0.138501 -0.272053 76 0 153
-0.214060 -0.263822 0.153717 76 0 153
-0.153848 0.447306 -0.043541 76 0 153
-0.060219 0.570039 0.217934 76 0 153
-0.222367 0.092591 0.099634 153 76 0
0.184506 0.081344 0.157142 76 0 153
-0.036718 -0.524599 0.236764 153 76 0
-0.089240 -0.075270 0.222791 153 76 0
-0.241654 -0.512770 0.043275 153 76 0
0.220070 0.681848 0.026193 76 0 153
0.003008 0.246518 0.258919 76 0 153
0.053165 -0.774209 0.048624 153 76 0
-0.093212 0.940840 0.047268 76 0 153
0.101486 -0.167313 0.258919 76 0 153
0.221638 -0.592885 0.101296 76 0 153
-0.035137 0.983636 0.032581 76 0 153
-0.168613 0.477145 -0.094591 76 0 153
-0.119424 0.745761 0.008145 76 0 153
0.180896 -0.349841 -0.224297 76 0 153
0.091438 0.930798 -0.065121 76 0 153
-0.272201 -0.399233 -0.066223 76 0 153
0.234474 -0.325052 0.070307 76 0 153
0.106707 0.377758 0.258532 76 0 153
0.191202 -0.540054 -0.161626 153 76 0
-0.175782 -0.142262 -0.181774 76 0 153
-0.131269 0.604082 -0.005951 153 76 0
-0.162245 0.440730 0.172827 76 0 153
0.245622 -0.409714 0.012823 76 0 153
0.226131 -0.499550 0.090447 153 76 0
-0.222350 0.688575 0.005497 76 0 153
-0.106058 -0.235020 0.258919 76 0 153
-0.166271 0.691965 -0.154232 76 0 153
-0.266098 -0.771667 -0.053014 76 0 153
0.206284 0.583827 0.095038 76 0 153
0.087549 0.913495 -0.046198 76 0 153
-0.154539 -0.630357 0.185002 76 0 153
0.176615 0.560116 0.053464 153 76 0
-0.042369 -0.553806 0.258919 76 0 153
-0.288475 -0.088799 -0.033540 76 0 153
0.164659 0.250440 0.231942 76 0 153
-0.092142 0.703280 -0.155248 76 0 153
-0.233701 0.046375 0.119697 76 0 153
0.228056 0.038640 0.129403 76 0 153
0.054706 0.412238 0.188566 76 0 153
-0.196730 0.399721 -0.196942 76 0 153
0.288435 0.376530 -0.005671 76 0 153
-0.131894 0.055408 -0.215589 76 0 153
-0.115212 0.507157 0.126600 153 76 0
0.117727 0.766483 -0.002230 76 0 153
0.197933 -0.386993 -0.194788 76 0 153
0.194021 -0.474008 -0.157952 76 0 153
-0.166595 -0.131160 0.230488 76 0 153
-0.288414 -0.165194 -0.034002 76 0 153
0.205257 0.640114 -0.100209 76 0 153
-0.243003 -0.313070 -0.116794 76 0 153
0.026898 0.099552 0.238052 153 76 0
0.120277 -0.257215 0.209918 76 0 153
-0.029579 0.471442 -0.146347 153 76 0
0.136970 -0.096417 -0.263217 76 0 153
0.266406 -0.579591 0.062979 76 0 153
-0.208543 0.628756 0.081288 76 0 153
-0.210691 0.586963 -0.097121 76 0 153
-0.135710 0.668187 0.101898 153 76 0
0.194724 0.383700 -0.200347 76 0 153
-0.101264 -0.108056 -0.231021 76 0 153
-0.050262 -0.462604 0.278781 76 0 153
0.030068 0.275345 0.237634 153 76 0
0.284534 -0.412712 -0.044790 76 0 153
-0.178965 0.081610 -0.227713 76 0 153
0.072606 -0.774209 0.141309 76 0 153
-0.181833 0.377190 -0.222745 76 0 153
0.262213 -0.132551 0.070241 76 0 153
0.222598 0.037273 0.098978 76 0 153
0.018092 0.998236 -0.074715 76 0 153
0.036024 0.184135 0.236850 153 76 0
0.160702 0.560325 0.085982 153 76 0
-0.038966 0.545783 0.186463 153 76 0
-0.020246 0.998236 0.024263 76 0 153
-0.166806 -0.769872 0.129908 76 0 153
0.190131 0.703237 -0.068275 76 0 153
0.075039 0.708241 -0.124199 76 0 153
0.217225 0.007505 -0.161373 76 0 153
0.108941 0.806673 0.058582 76 0 153
0.118485 0.213226 -0.223871 76 0 153
0.223449 -0.777989 -0.150592 76 0 153
-0.205079 0.232520 -0.143594 76 0 153
0.015100 0.717889 0.161569 76 0 153
-0.021269 0.056332 0.258919 76 0 153
-0.040151 0.236453 0.258919 76 0 153
-0.277595 0.390933 0.041697 76 0 153
0.202767 0.378081 0.122727 153 76 0
-0.080558 0.657555 -0.215945 76 0 153
0.210028 0.609684 0.030817 76 0 153
-0.194507 -0.488918 0.187582 76 0 153
0.289125 -0.478461 -0.028292 76 0 153
-0.081970 0.407410 -0.201857 76 0 153
-0.190105 0.154440 0.195207 76 0 153
0.114442 0.706959 -0.196952 76 0 153
0.247573 -0.306680 -0.011220 76 0 153
-0.107624 0.401697 0.248125 76 0 153
-0.080762 0.423467 0.157238 76 0 153
-0.229293 0.582690 0.010766 76 0 153
0.190262 -0.107489 0.149640 153 76 0
-0.068349 0.144769 0.258919 76 0 153
-0.050725 -0.774209 -0.046801 153 76 0
-0.082805 -0.079329 0.258919 76 0 153
-0.192790 0.054286 0.190557 76 0 153
0.047047 0.553889 0.184403 153 76 0
-0.100000 0.443208 0.119377 153 76 0
0.185906 -0.101576 0.202409 76 0 153
-0.137319 0.655864 -0.184035 76 0 153
-0.203291 -0.609556 -0.185579 76 0 153
-0.193812 -0.303549 0.145067 153 76 0
0.205044 -0.086059 -0.143586 153 76 0
-0.269565 0.312051 -0.070788 76 0 153
-0.194863 -0.817929 -0.112727 76 0 153
-0.189011 0.287955 0.197101 76 0 153
0.094790 0.497896 0.088724 153 76 0
-0.244221 0.078819 0.023779 76 0 153
0.006800 -0.178212 0.240698 153 76 0
-0.223504 -0.490885 -0.150569 76 0 153
0.165308 -0.161254 0.176707 76 0 153
-0.188226 -0.150504 0.198462 76 0 153
-0.259526 -0.659002 0.074967 76 0 153
0.078249 0.808903 0.091912 76 0 153
-0.101720 -0.818009 0.136672 76 0 153
-0.288886 0.012405 -0.030419 76 0 153
-0.142198 0.604504 -0.106651 153 76 0
0.010878 0.286421 0.283961 76 0 153
0.000386 -0.082061 0.241542 153 76 0
0.245497 -0.244472 0.099194 76 0 153
-0.198219 0.627115 -0.081804 76 0 153
0.050198 0.327873 0.258919 76 0 153
-0.170824 0.430780 0.021739 153 76 0
-0.288729 -0.718727 -0.022160 76 0 153
0.134375 0.560007 0.125414 153 76 0
0.118172 0.583769 -0.186901 76 0 153
-0.200167 0.168080 0.177779 76 0 153
0.256081 -0.623741 0.080862 76 0 153
0.238942 -0.185797 -0.072730 76 0 153
0.205209 0.046735 0.168976 76 0 153
0.234810 -0.579648 -0.082705 153 76 0
0.276068 -0.270082 0.046244 76 0 153
0.040697 -0.506976 0.280035 76 0 153
0.175136 -0.538897 0.221063 76 0 153
-0.105122 0.846041 -0.018908 76 0 153
-0.019664 -0.022363 -0.278100 76 0 153
0.148831 -0.192581 0.189351 153 76 0
-0.190184 0.265260 -0.208280 76 0 153
0.180865 0.076426 -0.224350 76 0 153
-0.080293 0.291430 -0.239707 153 76 0
-0.156745 0.085166 0.238046 76 0 153
-0.230926 -0.290721 -0.137712 76 0 153
-0.187494 -0.640439 -0.212940 76 0 153
-0.236504 -0.495660 0.114842 76 0 153
-0.154228 0.619706 -0.174319 76 0 153
-0.289097 -0.057227 -0.028818 76 0 153
0.236453 0.177553 0.114859 76 0 153
-0.281849 -0.446614 -0.049511 76 0 153
0.080908 0.270302 0.258919 76 0 153
0.021279 0.230010 0.282592 76 0 153
-0.178054 0.417425 0.063922 76 0 153
0.154944 0.549594 0.114600 153 76 0
-0.150850 0.248609 -0.201044 76 0 153
0.011181 -0.818009 0.171960 76 0 153
-0.173621 0.675592 0.005549 153 76 0
0.106826 -0.576519 0.262493 76 0 153
-0.264068 0.070224 0.067099 76 0 153
0.013128 0.090908 0.258919 76 0 153
-0.176965 -0.476762 -0.231177 76 0 153
0.189755 -0.373080 0.195742 76 0 153
-0.189237 -0.499613 -0.164240 76 0 153
-0.098514 0.361931 0.217656 153 76 0
-0.161721 -0.489587 -0.192702 153 76 0
-0.067842 0.239602 0.231654 153 76 0
0.169885 0.117461 -0.186405 76 0 153
-0.013871 0.677035 0.148593 153 76 0
0.245306 -0.157849 0.015226 76 0 153
-0.202079 -0.296963 0.174468 76 0 153
-0.239019 -0.254982 -0.072641 76 0 153
-0.253468 -0.329184 0.085458 76 0 153
0.144937 0.710517 0.159175 76 0 153
0.187982 0.623250 0.093932 76 0 153
-0.210727 -0.469993 -0.136234 76 0 153
-0.219111 0.601486 0.060870 76 0 153
-0.208343 -0.183611 -0.139340 76 0 153
-0.198179 0.580223 0.112564 76 0 153
0.135117 -0.541848 0.250774 76 0 153
-0.266405 -0.728769 0.063051 76 0 153
-0.106232 0.519895 -0.082518 153 76 0
-0.246433 -0.442720 -0.020190 76 0 153
0.277395 -0.694880 -0.057156 76 0 153
-0.086465 0.850400 0.077541 76 0 153
-0.027744 -0.196993 -0.251156 153 76 0
-0.051418 0.921769 -0.086733 76 0 153
-0.041936 0.983636 -0.037224 76 0 153
-0.069466 0.312262 -0.244192 76 0 153
0.035099 0.484690 0.174919 153 76 0
0.117860 0.267952 -0.271133 76 0 153
-0.154370 -0.812780 -0.180017 76 0 153
-0.153201 -0.771124 -0.229612 76 0 153
0.146699 0.679781 0.161440 76 0 153
-0.244285 0.139579 0.101365 76 0 153
-0.203982 -0.286325 -0.184381 76 0 153
-0.241829 -0.664648 0.041951 76 0 153
-0.035225 0.649682 0.163961 153 76 0
-0.081706 -0.338390 -0.239122 76 0 153
0.235126 0.044689 -0.081941 153 76 0
0.031759 0.265344 0.281212 76 0 153
-0.155510 0.641906 -0.150296 76 0 153
-0.141756 -0.654156 -0.261252 76 0 153
0.247616 0.007202 0.095523 76 0 153
-0.058987 -0.105192 0.277633 76 0 153
0.223588 0.669341 -0.019527 76 0 153
-0.023305 0.107792 -0.251740 153 76 0
0.080922 0.588606 -0.161091 153 76 0
-0.087924 0.648822 -0.158100 153 76 0
-0.242873 -0.545169 -0.117021 76 0 153
-0.011417 -0.061991 -0.278225 153 76 0
0.267016 0.394891 -0.075132 76 0 153
0.228607 -0.634402 -0.097679 76 0 153
0.243936 0.164062 0.025635 153 76 0
-0.183537 -0.554773 -0.219794 76 0 153
-0.057507 -0.589793 0.277827 76 0 153
0.006194 -0.734108 0.280529 76 0 153
0.088700 0.692450 -0.194146 76 0 153
0.222270 -0.026271 0.099768 153 76 0
-0.185228 0.418735 0.185521 76 0 153
0.018367 -0.119515 0.282975 76 0 153
0.220761 0.274382 0.142038 76 0 153
-0.109967 -0.774209 0.156291 153 76 0
-0.237307 -0.199573 0.113451 76 0 153
0.241388 -0.015515 -0.119522 76 0 153
0.217994 -0.342632 0.110092 153 76 0
0.126551 0.420778 -0.239461 76 0 153
0.288194 -0.686593 -0.035363 76 0 153
-0.053568 -0.679585 0.258919 76 0 153
0.134426 -0.585034 -0.213614 76 0 153
0.170037 0.625720 -0.157052 76 0 153
0.148244 0.417275 0.115163 76 0 153
-0.218089 0.390291 -0.159948 76 0 153
0.246075 -0.443140 0.009388 76 0 153
0.122645 0.622695 -0.050764 153 76 0
0.168072 -0.720442 -0.240716 76 0 153
0.100949 0.276719 -0.231134 153 76 0
0.022706 -0.091071 0.238604 76 0 153
0.232398 -0.634180 0.121883 76 0 153
0.137019 -0.210065 -0.263197 76 0 153
0.259461 -0.069695 -0.088218 76 0 153
0.036867 0.554420 0.207500 76 0 153
0.008823 0.234421 0.240431 153 76 0
-0.007337 -0.577872 0.240632 153 76 0
-0.195486 -0.387835 -0.156095 76 0 153
-0.233559 0.395565 0.119943 76 0 153
-0.149909 -0.774209 -0.107196 76 0 153
-0.202007 0.175632 0.134387 76 0 153
-0.086633 -0.567186 0.223871 153 76 0
0.108333 0.703271 0.136075 76 0 153
0.096686 0.251100 0.266693 76 0 153
-0.240789 -0.630552 0.107419 76 0 153
0.247457 -0.108034 -0.012097 153 76 0
-0.217244 -0.413950 -0.125213 76 0 153
0.225261 0.639509 -0.023165 76 0 153
-0.194608 -0.344467 0.144029 153 76 0
0.217432 -0.096164 0.147805 76 0 153
0.212173 0.076694 0.121086 76 0 153
0.212213 -0.807104 0.105971 76 0 153
-0.206195 -0.382787 0.128929 153 76 0
0.072368 0.392506 -0.225916 153 76 0
-0.055820 -0.493911 0.234249 153 76 0
0.001668 0.009196 -0.254583 76 0 153
-0.164639 -0.818009 -0.074617 76 0 153
-0.048297 0.998236 0.049238 76 0 153
0.137104 -0.282238 0.249951 76 0 153
-0.027067 -0.135288 -0.272129 153 76 0
0.027823 0.536281 0.173010 153 76 0
0.036454 -0.774209 0.143257 153 76 0
0.242938 -0.243220 -0.046419 153 76 0
0.161384 0.326616 -0.247665 76 0 153
-0.041285 0.950917 0.074415 76 0 153
0.085668 -0.263392 0.258919 76 0 153
-0.234015 -0.445820 -0.084722 153 76 0
0.248916 0.155080 -0.106483 76 0 153
-0.188302 -0.411975 -0.165458 153 76 0
-0.241035 -0.735867 -0.008955 153 76 0
0.076261 0.786938 0.079001 76 0 153
0.230306 -0.561823 0.125505 76 0 153
0.093920 0.917980 -0.023995 76 0 153
-0.223241 -0.087573 -0.151023 76 0 153
-0.132010 0.705118 0.054691 76 0 153
0.171548 0.703240 -0.107387 76 0 153
-0.052955 0.573972 0.112379 153 76 0
-0.172949 -0.769770 -0.135304 153 76 0
0.057274 -0.637841 0.277853 76 0 153
0.071225 0.717879 -0.166045 76 0 153
0.020844 0.677035 0.122195 153 76 0
-0.184179 -0.774209 -0.089815 76 0 153
-0.162740 -0.774209 0.056202 153 76 0
-0.167399 0.646128 0.043211 153 76 0
0.155189 -0.740696 -0.186402 153 76 0
0.248031 -0.223701 -0.007734 153 76 0
-0.143107 -0.651874 -0.206985 76 0 153
0.153221 -0.453128 -0.253929 76 0 153
-0.093951 0.872470 0.033131 76 0 153
0.206304 0.595102 0.054959 76 0 153
0.213716 -0.508680 -0.167450 76 0 153
0.039934 0.703262 -0.187351 76 0 153
-0.136490 0.364165 -0.209978 153 76 0
0.229767 0.142112 0.126439 76 0 153
-0.227066 -0.060570 0.088289 153 76 0
0.219225 0.258464 0.107120 76 0 153
0.046217 0.060481 0.235508 153 76 0
-0.231779 -0.753568 0.123026 76 0 153
0.019832 -0.514283 0.258919 76 0 153
-0.161729 0.414812 -0.118468 153 76 0
0.094177 -0.774209 0.149762 153 76 0
0.274117 0.255157 0.049623 76 0 153
-0.238188 -0.650519 -0.125135 76 0 153
0.245145 0.115068 0.016446 153 76 0
-0.171489 0.554763 -0.102283 153 76 0
-0.134387 -0.245626 0.200466 153 76 0
0.201213 0.162606 0.135368 76 0 153
0.221783 -0.306591 0.100944 76 0 153
-0.215063 -0.190193 0.117266 153 76 0
0.032851 0.727362 0.113568 76 0 153
-0.077323 -0.216422 0.258919 76 0 153
0.132268 0.100837 0.251955 76 0 153
0.229294 0.611437 -0.005303 76 0 153
0.144493 -0.683961 0.192680 153 76 0
-0.242612 0.158401 -0.049213 76 0 153
-0.289772 -0.158215 0.010483 76 0 153
-0.105881 -0.184139 0.258919 76 0 153
0.104789 0.703232 0.167221 76 0 153
-0.286277 0.146466 0.028633 76 0 153
-0.090301 0.910102 0.058362 76 0 153
0.054699 0.692466 0.209833 76 0 153
-0.075390 -0.774209 0.001463 76 0 153
0.146673 0.519502 0.087994 153 76 0
-0.026490 -0.465122 0.238111 76 0 153
-0.127965 0.284931 0.253754 76 0 153
-0.039565 0.833107 -0.122608 76 0 153
0.220170 -0.659174 -0.156271 76 0 153
0.267334 -0.741560 -0.074582 76 0 153
-0.097168 0.431818 -0.148678 76 0 153
0.110605 -0.818009 0.061351 76 0 153
0.092158 -0.188816 -0.272129 76 0 153
0.244124 -0.413455 -0.037413 76 0 153
-0.173663 -0.774209 -0.015258 76 0 153
-0.104489 0.486753 -0.157597 153 76 0
-0.001840 -0.307365 0.241356 153 76 0
0.034404 -0.295948 0.258919 76 0 153
-0.035530 -0.478706 0.258919 76 0 153
-0.082646 -0.764985 -0.211004 153 76 0
-0.077258 0.373867 0.258919 76 0 153
0.129385 -0.142948 -0.217482 76 0 153
-0.274906 0.279339 0.048327 76 0 153
0.238275 -0.711742 0.111702 76 0 153
0.068234 0.837517 -0.107591 76 0 153
-0.243212 -0.452042 -0.116434 76 0 153
-0.176417 0.703260 0.053144 76 0 153
0.084387 0.857100 -0.091628 76 0 153
-0.272606 -0.328707 0.052311 76 0 153
0.083761 0.110339 0.272047 76 0 153
-0.094893 0.603561 -0.198478 76 0 153
0.148512 -0.551419 0.189596 153 76 0
-0.026061 -0.375882 -0.251377 76 0 153
0.129675 0.552477 0.005487 153 76 0
-0.002031 0.734175 -0.144353 76 0 153
-0.181969 0.060287 -0.222509 76 0 153
0.161995 -0.253377 0.233986 76 0 153
0.100070 -0.818009 0.105209 76 0 153
0.195462 -0.669772 0.142864 153 76 0
-0.069231 0.023125 0.276284 76 0 153
0.153668 -0.556577 -0.253586 76 0 153
0.033746 -0.257142 0.237150 153 76 0
-0.125092 0.593464 0.185831 76 0 153
0.119608 -0.308831 -0.270408 76 0 153
0.211561 0.573963 0.038743 76 0 153
-0.064969 -0.636168 0.258919 76 0 153
0.081884 0.632601 0.204100 76 0 153
0.288651 -0.658338 0.018683 76 0 153
0.244768 0.269532 -0.113666 76 0 153
0.025201 -0.774209 -0.115124 76 0 153
0.154561 -0.291519 -0.252901 76 0 153
-0.017939 0.677035 -0.169501 153 76 0
0.178047 -0.495615 0.216020 76 0 153
-0.033391 -0.141264 0.237202 153 76 0
0.097535 -0.810860 -0.219608 76 0 153
-0.288759 -0.247095 0.018173 76 0 153
-0.277227 -0.554413 -0.057517 76 0 153
0.287919 -0.729986 -0.013209 76 0 153
0.010497 0.419121 0.182499 76 0 153
-0.194931 0.344646 -0.200059 76 0 153
-0.221811 -0.757009 -0.153501 76 0 153
-0.045074 0.104842 0.258919 76 0 153
0.136048 0.090402 0.199160 76 0 153
0.259365 -0.196974 0.075174 76 0 153
-0.223584 -0.320044 0.137220 76 0 153
0.232195 -0.792555 0.097714 76 0 153
0.199233 -0.617831 0.179326 76 0 153
-0.199418 0.019157 -0.192286 76 0 153
0.120700 -0.680838 -0.269956 76 0 153
0.234440 0.396380 0.118345 76 0 153
0.226983 -0.809673 -0.074534 76 0 153
-0.158558 -0.686900 0.236655 76 0 153
-0.127356 0.556960 0.169091 76 0 153
-0.059465 -0.774209 -0.123783 76 0 153
0.034938 0.935607 -0.108467 76 0 153
0.223953 0.077050 -0.108917 153 76 0
-0.056061 0.991632 -0.086126 76 0 153
0.199622 -0.193919 0.137442 153 76 0
-0.288562 -0.219044 0.019668 76 0 153
0.115890 -0.699601 0.258739 76 0 153
0.087556 0.400796 -0.210388 153 76 0
0.212567 -0.722553 -0.129580 76 0 153
-0.272487 -0.072849 -0.065728 76 0 153
0.068222 -0.317225 0.258919 76 0 153
-0.008080 0.190837 0.240535 153 76 0
0.239858 -0.724487 0.033292 76 0 153
-0.189185 0.694439 0.077826 76 0 153
-0.033096 0.427895 -0.261410 76 0 153
-0.208027 0.456988 -0.041582 76 0 153
0.148874 0.012494 0.189318 76 0 153
0.003272 -0.463929 0.258919 76 0 153
-0.009013 0.864927 0.110932 76 0 153
0.084259 -0.638646 0.258919 76 0 153
-0.202907 0.687654 -0.055709 76 0 153
0.140311 -0.160250 0.248623 76 0 153
0.201619 -0.561162 -0.148049 76 0 153
-0.103429 -0.402985 0.258919 76 0 153
0.243942 -0.567340 -0.038794 76 0 153
0.087426 -0.262438 -0.236736 76 0 153
0.291837 -0.603965 -0.005521 76 0 153
-0.259940 -0.609974 0.074250 76 0 153
0.072863 -0.378151 0.275800 76 0 153
-0.156876 0.190232 -0.251156 76 0 153
-0.114848 -0.510521 -0.225394 153 76 0
0.202460 -0.356965 -0.186947 76 0 153
-0.138799 -0.452573 -0.210290 153 76 0
-0.225317 0.113064 -0.147429 76 0 153
0.118156 0.476079 0.069893 76 0 153
0.027891 0.776823 0.121290 76 0 153
0.237938 -0.144736 -0.125498 76 0 153
0.243892 0.360879 -0.115185 76 0 153
0.203682 -0.818009 -0.055358 76 0 153
0.243455 -0.070090 0.029286 76 0 153
-0.012150 0.624097 0.205734 76 0 153
-0.048934 0.452494 -0.220696 76 0 153
0.180044 0.130244 -0.225772 76 0 153
-0.144742 -0.191713 -0.205730 153 76 0
-0.147725 -0.464987 0.190231 153 76 0
0.239520 -0.251604 -0.071333 76 0 153
0.155200 0.245767 -0.197674 76 0 153
0.078562 -0.818009 -0.051067 76 0 153
0.152128 -0.051703 0.186821 153 76 0
-0.034054 -0.105555 0.258919 76 0 153
-0.270305 -0.626993 -0.069507 76 0 153
-0.221142 0.155431 0.141449 76 0 153
-0.254462 0.021940 0.083738 76 0 153
-0.108682 0.068196 0.261741 76 0 153
0.104880 -0.577337 -0.229506 153 76 0
-0.242265 -0.797934 0.059908 76 0 153
0.088139 0.966765 0.047669 76 0 153
-0.032760 0.594817 0.205132 76 0 153
-0.035479 -0.774209 -0.160247 76 0 153
-0.246254 -0.249863 0.008339 76 0 153
-0.118019 -0.532820 0.210870 76 0 153
-0.093599 -0.818009 0.062080 76 0 153
0.212910 0.276749 0.120124 76 0 153
-0.142550 0.491626 0.104995 153 76 0
0.058057 0.998236 0.004723 76 0 153
0.017698 0.717943 -0.158925 76 0 153
-0.193399 -0.045910 0.189502 76 0 153
-0.182804 0.537816 -0.060720 153 76 0
0.107239 -0.456604 -0.228529 153 76 0
0.230123 0.106822 -0.139033 76 0 153
-0.018823 0.996213 -0.096791 76 0 153
-0.054064 0.923194 0.071233 76 0 153
-0.037236 -0.677024 -0.249906 76 0 153
-0.078262 0.548738 0.174042 153 76 0
-0.240991 -0.408623 -0.061526 153 76 0
0.095199 0.606517 0.083200 153 76 0
0.033278 -0.450944 0.281012 76 0 153
0.094490 0.989779 0.022463 76 0 153
-0.104644 -0.818009 -0.127471 76 0 153
0.197663 -0.083008 0.182046 76 0 153
-0.264941 0.147383 0.065587 76 0 153
-0.178459 0.439526 -0.172893 76 0 153
0.069025 0.998236 -0.052098 76 0 153
0.042637 0.998236 -0.050637 76 0 153
-0.194555 -0.573121 0.144099 153 76 0
-0.226782 0.578511 -0.045343 76 0 153
0.226128 -0.692878 0.132742 76 0 153
-0.103972 -0.772348 -0.193669 153 76 0
0.030247 0.677035 -0.175934 153 76 0
0.219250 0.572251 -0.079109 76 0 153
-0.229030 -0.751310 0.025950 76 0 153
0.063828 -0.091555 0.258919 76 0 153
0.104193 0.628594 0.132375 153 76 0
-0.026225 0.070833 -0.272129 153 76 0
0.168808 0.342291 0.228759 76 0 153
-0.187089 -0.053803 0.153829 153 76 0
-0.222317 0.210247 0.099754 76 0 153
-0.274583 0.086625 0.048888 76 0 153
-0.086154 -0.812505 0.208734 76 0 153
-0.266419 0.266676 -0.076237 76 0 153
0.019688 0.971857 0.079173 76 0 153
0.067471 0.018275 0.258919 76 0 153
0.178771 0.681436 0.102074 76 0 153
-0.006850 -0.602842 0.240696 153 76 0
0.238474 -0.081993 -0.124568 76 0 153
-0.205877 0.190504 0.167889 76 0 153
-0.043969 0.621219 0.162809 153 76 0
-0.242902 0.020877 0.033802 153 76 0
-0.020247 -0.818009 -0.084508 76 0 153
0.129850 0.372818 0.198572 76 0 153
-0.146401 0.394374 -0.182403 76 0 153
0.245936 -0.100973 0.010441 153 76 0
-0.239437 -0.371703 -0.122971 76 0 153
-0.247816 -0.353529 -0.009681 76 0 153
-0.226267 -0.408661 0.090218 153 76 0
-0.061823 0.571747 -0.230347 76 0 153
-0.071424 0.351215 0.230045 76 0 153
0.154193 0.494421 -0.100918 153 76 0
-0.036712 -0.052673 0.280565 76 0 153
-0.008204 -0.125987 0.258919 76 0 153
0.273800 -0.471427 0.050172 76 0 153
0.224845 0.554395 0.012913 76 0 153
0.237468 0.369276 0.113101 76 0 153
-0.223506 0.154639 0.096885 76 0 153
0.201101 0.271770 -0.189300 76 0 153
-0.248158 -0.634075 -0.007088 76 0 153
0.007548 0.583535 -0.237107 76 0 153
0.055813 0.386001 0.223267 153 76 0
-0.171846 0.585939 -0.032242 153 76 0
-0.240738 -0.180143 0.050231 76 0 153
0.042560 0.284303 0.258919 76 0 153
-0.114262 0.454223 0.177226 76 0 153
-0.243803 -0.076947 -0.115409 76 0 153
-0.191428 0.609634 0.088256 76 0 153
-0.078021 0.707625 -0.123166 76 0 153
0.177111 -0.209671 0.217643 76 0 153
-0.045309 -0.378525 0.258919 76 0 153
-0.070888 -0.088653 0.230393 76 0 153
0.162360 0.361279 -0.246162 76 0 153
-0.138535 0.278919 0.197283 153 76 0
-0.256611 -0.006393 0.080016 76 0 153
0.049646 -0.100312 -0.248267 153 76 0
0.267588 -0.078701 0.060931 76 0 153
0.251081 -0.363993 -0.102732 76 0 153
-0.127110 -0.763988 0.237558 76 0 153
-0.203746 -0.110319 0.171581 76 0 153
0.049976 -0.659794 -0.248223 76 0 153
0.217157 0.066491 0.148281 76 0 153
-0.019223 0.648408 -0.135451 153 76 0
-0.279540 0.073164 -0.053511 76 0 153
-0.056204 -0.052566 0.258919 76 0 153
0.172302 0.677035 -0.028217 153 76 0
-0.107257 -0.783223 0.232741 76 0 153
-0.193142 -0.186722 -0.159151 76 0 153
-0.169018 0.049349 0.228629 76 0 153
-0.167392 -0.105331 0.229877 76 0 153
-0.062421 -0.514209 -0.246591 153 76 0
0.185348 -0.440886 0.156044 76 0 153
0.019506 0.983636 -0.006769 76 0 153
-0.120377 0.623352 0.043130 153 76 0
-0.206016 -0.817707 -0.090175 76 0 153
0.159874 0.575733 -0.173919 76 0 153
-0.204806 0.703229 0.000124 76 0 153
0.188351 -0.745673 -0.211384 76 0 153
0.193889 -0.492747 -0.201792 76 0 153
0.204827 0.668360 0.082759 76 0 153
0.137658 -0.774209 0.087323 76 0 153
0.015388 -0.598761 -0.252777 153 76 0
0.115719 0.471969 -0.161779 76 0 153
-0.076555 0.975970 -0.049234 76 0 153
0.025984 0.608322 -0.232893 76 0 153
-0.002076 -0.315274 0.285125 76 0 153
-0.170931 -0.297313 -0.185634 76 0 153
-0.041935 0.382165 0.227466 153 76 0
0.030868 -0.555905 0.237529 153 76 0
0.077770 -0.759022 -0.218666 153 76 0
-0.105428 -0.157268 0.216086 153 76 0
-0.153323 0.703233 0.124427 76 0 153
-0.143577 0.416798 0.122774 76 0 153
-0.227836 -0.531451 0.129856 76 0 153
0.188791 0.562547 -0.116192 76 0 153
0.220012 -0.018045 0.143335 76 0 153
-0.130847 -0.818009 -0.104933 76 0 153
0.054613 0.998236 0.043333 76 0 153
0.127725 0.598256 0.020613 153 76 0
0.049379 0.631625 -0.213494 76 0 153
-0.016252 0.349480 0.283259 76 0 153
0.288365 -0.096247 0.020854 76 0 153
-0.124023 -0.818009 0.079161 76 0 153
0.017126 0.615711 -0.179548 153 76 0
0.066132 0.411800 -0.198111 76 0 153
-0.070012 -0.383714 0.276181 76 0 153
0.196592 -0.318289 0.141390 76 0 153
0.217225 0.568027 -0.012181 76 0 153
-0.170349 0.606641 0.030404 153 76 0
-0.007584 -0.548491 0.240600 153 76 0
0.290440 0.027942 -0.018300 76 0 153
0.138466 -0.818009 0.087448 76 0 153
-0.212065 0.349038 0.157171 76 0 153
-0.223196 0.591467 -0.065480 76 0 153
-0.044458 -0.687424 0.279545 76 0 153
-0.090571 -0.410975 -0.235450 76 0 153
0.127066 0.320062 0.206052 153 76 0
-0.163456 0.703292 0.032415 76 0 153
0.224722 0.654670 0.005747 76 0 153
-0.242686 -0.288712 -0.048648 153 76 0
-0.286843 0.375951 0.007864 76 0 153
0.240853 -0.169650 0.049047 76 0 153
-0.232795 0.143036 -0.087668 153 76 0
-0.106979 -0.704332 0.215268 76 0 153
0.150184 0.558182 0.151433 76 0 153
0.237097 0.378782 0.025479 76 0 153
0.199456 -0.414434 -0.150868 76 0 153
-0.291404 -0.338882 -0.001917 76 0 153
-0.098028 0.369676 -0.229011 153 76 0
-0.017216 0.983636 -0.074395 76 0 153
-0.217815 -0.616261 -0.160423 76 0 153
-0.220727 -0.136501 -0.116804 153 76 0
0.002279 -0.401854 0.285093 76 0 153
0.236084 0.397077 -0.128708 76 0 153
0.133065 0.705183 0.051601 76 0 153
0.076810 0.758332 0.083794 76 0 153
0.105144 0.937450 0.016031 76 0 153
-0.136018 0.060874 0.199214 153 76 0
-0.131020 -0.473020 -0.216260 153 76 0
0.163692 0.535853 0.070050 153 76 0
-0.143439 -0.289545 0.193520 153 76 0
-0.042232 0.830828 0.092817 76 0 153
0.117709 0.625098 0.049478 153 76 0
-0.117773 0.561547 0.129926 153 76 0
-0.093870 -0.174012 -0.234083 76 0 153
-0.152510 -0.796156 -0.205947 76 0 153
0.230344 -0.488863 0.125441 76 0 153
-0.099983 0.525716 0.077003 153 76 0
0.235334 -0.276135 -0.130006 76 0 153
-0.239023 0.081616 -0.123689 76 0 153
0.219370 -0.663395 0.106770 153 76 0
-0.207277 -0.063705 -0.140730 76 0 153
0.130685 0.647376 0.176649 76 0 153
0.049201 0.114966 -0.248325 153 76 0
-0.238072 0.024990 -0.074930 153 76 0
-0.242314 0.283053 -0.051475 76 0 153
0.232192 -0.197352 0.075816 76 0 153
0.217649 -0.515939 0.110926 76 0 153
-0.202659 -0.771331 0.062771 76 0 153
0.194712 0.703227 0.058772 76 0 153
-0.181945 0.016376 -0.173743 76 0 153
-0.023921 0.675413 -0.134857 153 76 0
0.138432 0.479786 0.004622 153 76 0
0.114245 0.769677 -0.073666 76 0 153
-0.112234 0.557561 -0.210564 76 0 153
-0.204780 -0.371339 -0.143983 76 0 153
-0.043686 0.717833 0.190982 76 0 153
0.189458 -0.626079 0.196256 76 0 153
-0.119861 0.220547 0.210108 153 76 0
-0.244099 -0.243103 -0.114896 76 0 153
0.245583 0.235492 0.013121 76 0 153
0.060840 -0.804686 -0.242593 76 0 153
-0.186445 0.677073 0.116480 76 0 153
0.120653 -0.123502 0.256766 76 0 153
0.050688 0.083963 0.258919 76 0 153
0.239004 -0.057048 0.059370 76 0 153
-0.252110 0.287430 -0.101021 76 0 153
-0.052954 -0.774209 0.038025 76 0 153
-0.015524 -0.169415 0.239555 76 0 153
-0.243986 0.052398 -0.038775 153 76 0
0.114523 0.527884 0.124891 153 76 0
-0.196651 0.432074 0.151589 76 0 153
-0.136714 0.103333 0.198680 76 0 153
0.269928 -0.766751 -0.045437 76 0 153
-0.014164 -0.640754 0.258919 76 0 153
-0.013752 0.089245 0.258919 76 0 153
-0.218211 -0.765179 -0.036854 153 76 0
-0.105606 0.414650 -0.253245 76 0 153
0.047979 0.137048 0.235276 76 0 153
0.212391 -0.017144 0.120801 153 76 0
0.041297 0.665631 -0.212105 76 0 153
0.231662 -0.588463 0.077093 76 0 153
0.150626 -0.055656 -0.255920 76 0 153
-0.188222 -0.398490 -0.211678 76 0 153
0.224983 -0.531465 -0.147936 76 0 153
0.146011 0.631637 0.148014 76 0 153
-0.211613 0.661500 0.067758 76 0 153
-0.071598 0.721143 0.097912 76 0 153
0.136709 -0.096102 0.198652 153 76 0
0.153663 0.446668 -0.048124 76 0 153
-0.232247 0.267528 -0.135426 76 0 153
-0.070116 0.703272 -0.170908 76 0 153
0.092963 0.334307 0.258919 76 0 153
-0.064403 -0.774209 -0.205529 153 76 0
-0.083458 0.676752 -0.160057 153 76 0
0.061241 0.223532 -0.246740 76 0 153
0.097348 0.595351 -0.198080 76 0 153
-0.061300 -0.737401 -0.239273 153 76 0
0.070809 -0.542404 -0.243619 153 76 0
0.019049 0.599074 0.166085 153 76 0
-0.284192 -0.601697 -0.045453 76 0 153
0.195200 -0.774209 -0.006785 153 76 0
0.157927 -0.389431 -0.250318 76 0 153
0.044894 0.717833 -0.203576 76 0 153
-0.242146 -0.611210 0.039540 76 0 153
0.137446 -0.045210 0.249810 76 0 153
0.045380 -0.768897 0.205821 76 0 153
-0.241663 -0.384685 0.043207 153 76 0
0.243898 -0.576893 0.101964 76 0 153
0.242632 -0.354209 0.035536 153 76 0
0.133744 0.554395 -0.184524 76 0 153
-0.075074 0.022774 0.228659 76 0 153
0.239532 -0.313642 -0.071304 76 0 153
-0.065537 -0.164325 0.232609 153 76 0
-0.130296 0.440328 0.091797 76 0 153
-0.003100 0.004358 0.258919 76 0 153
0.037549 -0.068716 0.280450 76 0 153
0.182618 0.224093 -0.221314 76 0 153
-0.049539 -0.261149 0.258919 76 0 153
0.216350 -0.443430 -0.127272 153 76 0
-0.117992 0.863399 0.000779 76 0 153
-0.189888 -0.299676 -0.163390 153 76 0
0.127090 -0.818009 0.016453 76 0 153
0.008402 0.634575 -0.218676 76 0 153
0.291893 0.286441 -0.007266 76 0 153
-0.185412 0.465140 -0.082065 76 0 153
0.068196 -0.070019 0.258919 76 0 153
0.095641 0.589911 0.138937 153 76 0
0.216349 -0.229157 -0.127274 76 0 153
-0.106964 0.571454 0.182753 76 0 153
-0.136341 -0.385592 0.198966 76 0 153
-0.069517 0.660318 0.191386 76 0 153
-0.064468 0.035017 0.258919 76 0 153
-0.274231 0.398613 -0.053640 76 0 153
-0.230453 0.274602 0.125322 76 0 153
-0.026863 0.410506 -0.209996 153 76 0
0.256054 -0.526485 0.080909 76 0 153
-0.155581 -0.803728 0.180327 76 0 153
-0.174974 0.510840 -0.018491 153 76 0
0.067848 0.886114 0.085821 76 0 153
0.124175 0.580917 -0.046974 153 76 0
-0.269911 -0.458791 0.056979 76 0 153
0.213708 -0.164025 0.154254 76 0 153
-0.183650 -0.631633 0.158310 153 76 0
0.233590 -0.564710 0.072440 76 0 153
0.134250 -0.818009 -0.056238 76 0 153
0.057414 0.508502 0.159545 153 76 0
0.154367 0.130708 0.239840 76 0 153
0.162486 -0.639710 0.233609 76 0 153
0.258959 -0.397308 0.075878 76 0 153
-0.183832 0.672218 -0.133665 76 0 153
-0.119485 0.584145 -0.204183 76 0 153
0.159362 -0.192495 -0.249216 76 0 153
0.024556 0.571432 -0.134674 153 76 0
-0.178259 -0.722760 0.215725 76 0 153
0.291173 -0.679846 -0.012739 76 0 153
0.253736 -0.222330 0.084923 76 0 153
-0.211118 0.087009 0.122513 76 0 153
-0.221332 -0.345874 -0.115344 76 0 153
0.188482 -0.753499 0.125193 153 76 0
-0.226267 0.311864 0.132574 76 0 153
-0.257947 0.356189 -0.090912 76 0 153
0.160322 0.703229 -0.132118 76 0 153
-0.026722 0.138030 0.258919 76 0 153
0.106842 0.607385 0.130342 153 76 0
-0.005023 0.983636 -0.038196 76 0 153
-0.244722 -0.382794 0.019972 153 76 0
-0.017288 0.711677 0.126525 76 0 153
0.206507 0.029122 -0.179937 76 0 153
-0.030296 0.805515 0.101722 76 0 153
-0.037854 0.040699 0.236615 76 0 153
-0.220999 -0.438886 0.141697 76 0 153
0.117883 0.670906 0.121870 153 76 0
-0.243431 -0.714259 -0.035214 153 76 0
0.103990 0.677035 -0.118061 153 76 0
-0.215812 -0.673770 -0.163892 76 0 153
0.105554 -0.312957 0.263020 76 0 153
0.210849 0.622069 -0.090081 76 0 153
0.245457 -0.671207 0.099264 76 0 153
-0.224973 -0.794526 -0.123478 76 0 153
0.131344 -0.490741 -0.265548 76 0 153
0.259824 0.423735 -0.031074 76 0 153
0.117326 -0.193899 0.258144 76 0 153
0.231545 -0.112343 0.123359 76 0 153
0.170762 0.053292 -0.240469 76 0 153
-0.082725 -0.317022 0.258919 76 0 153
-0.056911 0.588693 -0.123964 153 76 0
-0.092010 -0.243948 -0.234854 153 76 0
0.163869 0.554395 -0.153223 76 0 153
-0.077875 0.270468 -0.240709 153 76 0
0.285179 0.176382 -0.043672 76 0 153
0.122063 0.557963 -0.154919 153 76 0
-0.103693 -0.063335 -0.230015 153 76 0
-0.141982 0.414338 -0.236121 76 0 153
-0.223990 -0.712828 -0.106727 76 0 153
-0.211811 0.574409 0.083554 76 0 153
-0.025036 0.863153 -0.107537 76 0 153
0.072674 0.298955 0.229636 76 0 153
0.001109 -0.730073 0.236742 153 76 0
-0.230258 -0.342844 -0.138870 76 0 153
-0.009275 -0.235769 0.240377 153 76 0
0.236228 0.279837 0.115249 76 0 153
-0.218074 -0.208175 -0.159974 76 0 153
0.049953 -0.487885 -0.248227 76 0 153
-0.286395 -0.719082 0.026347 76 0 153
0.070863 -0.369051 -0.243596 153 76 0
-0.213707 -0.570079 -0.132350 76 0 153
0.179487 -0.391467 0.163682 153 76 0
-0.008979 0.903771 0.090517 76 0 153
-0.095351 0.169079 0.258919 76 0 153
0.006527 0.561584 0.210977 76 0 153
-0.119186 0.352712 -0.223391 76 0 153
0.126099 0.271403 0.254510 76 0 153
0.102439 0.030806 -0.230517 76 0 153
-0.098451 -0.261732 0.218976 153 76 0
-0.136035 0.717886 -0.108904 76 0 153
-0.274203 0.322223 0.049545 76 0 153
0.244956 0.049691 0.100130 76 0 153
0.235022 0.016166 0.068983 153 76 0
0.213102 -0.743067 -0.168514 76 0 153
0.175435 0.563338 0.020193 153 76 0
0.120856 -0.278911 0.209679 76 0 153
-0.143022 -0.540970 -0.207050 76 0 153
-0.010336 -0.135089 -0.253448 153 76 0
0.263845 -0.168283 -0.080625 76 0 153
-0.200570 0.717822 -0.065176 76 0 153
0.048775 -0.040618 0.258919 76 0 153
-0.233051 -0.240329 0.073841 76 0 153
0.047446 -0.423749 0.279147 76 0 153
0.229636 0.376884 0.066604 153 76 0
0.197247 -0.135346 -0.153747 76 0 153
0.180787 -0.619235 -0.224486 76 0 153
-0.168577 -0.684894 -0.187440 153 76 0
0.221554 -0.337166 -0.114709 153 76 0
0.118279 0.222017 -0.270959 76 0 153
-0.199160 0.393711 -0.123579 76 0 153
-0.179398 0.266202 -0.226962 76 0 153
0.014167 0.149984 0.258919 76 0 153
0.208364 -0.329184 0.126049 76 0 153
-0.039815 -0.818009 -0.219867 76 0 153
0.269413 -0.646755 -0.070981 76 0 153
0.096405 -0.577621 0.219806 76 0 153
-0.218006 -0.054916 -0.123372 153 76 0
-0.122034 0.677035 0.053784 153 76 0
0.194149 0.123918 0.144575 76 0 153
0.279765 -0.014300 -0.053050 76 0 153
-0.197407 0.554395 -0.109364 76 0 153
-0.208042 -0.657910 0.126522 153 76 0
-0.245429 0.021086 -0.027816 153 76 0
-0.006635 -0.107703 0.240725 153 76 0
0.138132 -0.651837 -0.210770 76 0 153
0.283823 -0.150370 0.032811 76 0 153
0.001822 -0.665327 0.258919 76 0 153
0.163300 -0.040920 -0.191459 153 76 0
0.083853 -0.011636 0.272009 76 0 153
0.227622 -0.216747 0.130154 76 0 153
-0.174155 -0.446550 0.222833 76 0 153
-0.140262 0.183924 0.195957 153 76 0
0.241402 -0.411808 -0.058092 76 0 153
-0.237003 0.368801 -0.127188 76 0 153
-0.079218 0.894840 -0.088748 76 0 153
-0.046827 0.265779 0.235433 153 76 0
-0.036142 0.341863 -0.250050 153 76 0
0.102549 0.821720 0.031448 76 0 153
0.044882 0.597582 -0.216541 76 0 153
0.002841 0.983636 -0.068476 76 0 153
0.069721 -0.818009 0.045626 76 0 153
-0.088837 -0.257574 0.258919 76 0 153
0.062560 0.818710 -0.115320 76 0 153
-0.207650 -0.327431 0.164818 76 0 153
-0.101789 0.130178 0.264596 76 0 153
-0.110742 0.798569 0.015594 76 0 153
0.210785 -0.619724 -0.136104 153 76 0
0.218045 0.390795 -0.085579 153 76 0
-0.158542 0.703253 -0.111775 76 0 153
-0.010741 0.456327 0.205606 76 0 153
0.247858 0.271129 -0.004160 76 0 153
0.053467 -0.399056 0.278354 76 0 153
0.208046 -0.575076 0.164061 76 0 153
-0.243469 -0.327472 -0.042703 153 76 0
0.228398 0.009353 -0.142021 76 0 153
-0.263174 -0.194053 -0.081859 76 0 153
-0.067586 0.844229 -0.106897 76 0 153
0.135282 0.448427 -0.189577 76 0 153
-0.178267 -0.003611 -0.178536 76 0 153
0.169565 0.603918 -0.049252 153 76 0
0.241527 0.326488 -0.057142 153 76 0
-0.119457 0.538938 -0.058364 153 76 0
0.008098 -0.656038 0.240527 153 76 0
-0.142480 0.646737 0.149394 76 0 153
-0.112348 0.889721 -0.027702 76 0 153
-0.246362 0.131919 -0.020727 76 0 153
0.063342 0.296925 0.277054 76 0 153
-0.194460 0.416568 -0.008974 76 0 153
0.108141 0.526978 -0.079432 76 0 153
0.040000 -0.022248 0.280127 76 0 153
0.247202 -0.551526 -0.014038 153 76 0
-0.112614 0.722531 0.083178 76 0 153
-0.179090 -0.779037 0.190100 76 0 153
-0.010982 0.422766 -0.190077 153 76 0
0.146562 0.472317 -0.133056 76 0 153
0.216232 0.280092 -0.163094 76 0 153
-0.203562 -0.379359 0.171899 76 0 153
-0.199401 -0.774209 0.020506 153 76 0
0.048281 0.612184 -0.127545 153 76 0
-0.242932 -0.032908 -0.116918 76 0 153
0.021947 -0.766989 -0.224121 76 0 153
0.230565 -0.210525 -0.138267 76 0 153
-0.031444 -0.309759 -0.250669 76 0 153
-0.128797 -0.493154 0.253410 76 0 153
0.142613 -0.818009 -0.029441 76 0 153
-0.052683 0.359688 0.233798 153 76 0
-0.150580 0.527535 -0.096230 153 76 0
0.245661 -0.040400 -0.112120 76 0 153
0.021241 -0.810647 -0.240238 76 0 153
-0.048638 -0.530920 0.258919 76 0 153
0.161832 -0.818009 0.033846 76 0 153
-0.116862 0.475470 0.072081 76 0 153
0.036227 0.141587 -0.250034 76 0 153
0.143658 -0.603293 0.247237 76 0 153
-0.171727 0.621220 0.142221 76 0 153
-0.133526 -0.269162 0.201126 76 0 153
0.187677 -0.576145 0.199342 76 0 153
0.176939 0.717851 -0.077500 76 0 153
0.151090 -0.584069 -0.200828 153 76 0
0.217859 0.298730 -0.123628 153 76 0
-0.013849 0.291568 0.239775 153 76 0
0.184650 -0.529691 -0.217795 76 0 153
0.288662 0.078899 0.018595 76 0 153
-0.056872 0.677035 0.139439 153 76 0
-0.143565 -0.818009 0.019276 76 0 153
-0.152390 0.198048 0.186652 76 0 153
0.198743 0.311592 -0.193384 76 0 153
0.158432 0.125484 0.181984 153 76 0
-0.288366 0.155014 -0.034366 76 0 153
-0.027959 -0.014736 -0.251128 76 0 153
0.232913 -0.047164 0.120990 76 0 153
-0.152270 0.559915 -0.116504 153 76 0
-0.065562 0.084934 0.276767 76 0 153
-0.245300 0.435448 0.033825 76 0 153
-0.074336 -0.171077 0.258919 76 0 153
0.235261 -0.460598 0.068406 76 0 153
0.175159 0.424980 0.041481 76 0 153
-0.010262 -0.075293 0.258919 76 0 153
-0.105179 0.492447 -0.090742 153 76 0
0.026363 0.714604 -0.135508 76 0 153
0.131379 0.745848 -0.041949 76 0 153
-0.233320 0.291566 0.073191 153 76 0
0.207572 -0.015587 -0.178092 76 0 153
0.219120 0.221849 0.144880 76 0 153
-0.079352 0.554644 -0.184942 153 76 0
0.288030 0.012057 0.023398 76 0 153
0.014259 -0.603105 0.283516 76 0 153
-0.080086 0.746250 0.083513 76 0 153
-0.020619 0.703281 0.165700 76 0 153
0.179919 0.359909 0.212778 76 0 153
0.099051 0.590895 -0.149531 153 76 0
-0.020216 -0.236118 0.282737 76 0 153
-0.264850 -0.447074 -0.078955 76 0 153
-0.251512 -0.391394 0.088846 76 0 153
-0.079230 -0.132769 0.226938 153 76 0
-0.240303 0.093828 0.053539 76 0 153
-0.270830 -0.257327 -0.068597 76 0 153
-0.284194 0.072022 0.032240 76 0 153
0.102432 -0.786375 0.231961 76 0 153
0.137577 0.730659 0.004933 76 0 153
-0.231102 -0.195814 -0.091756 153 76 0
-0.239152 -0.305628 0.059111 76 0 153
-0.078543 0.785484 -0.109195 76 0 153
0.207967 -0.254146 0.126566 153 76 0
0.093850 -0.318424 -0.234075 153 76 0
0.113118 0.165267 0.212884 153 76 0
-0.112982 0.677035 -0.138609 153 76 0
0.128824 0.717838 -0.157651 76 0 153
-0.242180 -0.235705 0.039285 153 76 0
0.235580 -0.614935 -0.080847 76 0 153
0.094788 -0.377381 0.258919 76 0 153
-0.156956 -0.584600 0.237884 76 0 153
-0.137895 0.160458 -0.210984 76 0 153
0.059392 0.656111 0.109775 153 76 0
-0.118453 -0.208433 0.210691 76 0 153
-0.180205 -0.818009 -0.035088 76 0 153
0.162596 0.625578 -0.067918 153 76 0
0.227314 0.055448 -0.100803 153 76 0
0.066953 -0.743414 0.220919 76 0 153
-0.019628 0.262096 0.239014 153 76 0
-0.197213 0.703229 0.049071 76 0 153
-0.184075 -0.481586 0.205651 76 0 153
-0.188981 0.378244 0.197153 76 0 153
0.007163 0.030738 0.240650 153 76 0
0.291731 -0.128603 -0.008500 76 0 153
-0.059105 0.057462 0.258919 76 0 153
0.264152 0.349083 -0.080092 76 0 153
-0.204992 0.385770 -0.182632 76 0 153
0.178621 -0.254234 0.215028 76 0 153
-0.190619 0.223697 -0.207526 76 0 153
0.096216 0.485825 -0.105040 153 76 0
-0.090406 0.637467 -0.101415 153 76 0
0.060032 0.677035 0.153024 153 76 0
0.033210 0.703260 0.176330 76 0 153
0.008242 0.055735 -0.253718 153 76 0
0.145659 0.480911 0.110392 153 76 0
-0.239668 -0.079939 0.109361 76 0 153
-0.093554 0.591217 -0.098586 153 76 0
0.090124 0.614649 -0.101574 153 76 0
0.098951 -0.345884 0.218752 153 76 0
-0.197609 0.702820 -0.107054 76 0 153
0.244865 -0.045018 0.100289 76 0 153
0.265966 -0.498896 -0.076951 76 0 153
0.148504 -0.468690 0.189602 76 0 153
0.000713 0.598620 0.223709 76 0 153
0.227079 0.362815 -0.144306 76 0 153
0.174682 -0.663516 0.221850 76 0 153
0.096722 0.899174 0.010332 76 0 153
0.214594 -0.659617 -0.131140 153 76 0
0.103228 0.815679 -0.045301 76 0 153
-0.090430 -0.818009 -0.112454 76 0 153
-0.191416 -0.247649 -0.206147 76 0 153
-0.080109 -0.818009 -0.077185 76 0 153
0.156107 -0.630433 -0.251714 76 0 153
0.018225 -0.004276 0.282994 76 0 153
0.191323 -0.515387 0.148258 153 76 0
-0.173802 -0.342260 0.223444 76 0 153
-0.268322 -0.767016 0.043556 76 0 153
0.176250 -0.017063 -0.232344 76 0 153
-0.040390 -0.203256 0.280081 76 0 153
0.197195 0.015125 -0.196066 76 0 153
-0.011653 0.653547 0.203675 76 0 153
0.223236 -0.611989 0.137751 76 0 153
-0.047530 0.361245 0.278542 76 0 153
0.230921 -0.418349 -0.092094 153 76 0
0.243780 -0.699646 0.026818 76 0 153
0.267986 0.015271 0.060242 76 0 153
-0.191517 0.205004 0.192761 76 0 153
-0.148314 0.168207 -0.257725 76 0 153
0.130703 0.677035 0.002981 153 76 0
0.169967 0.656012 -0.046202 153 76 0
-0.290969 -0.364588 -0.014597 76 0 153
0.184270 0.667588 -0.107820 76 0 153
-0.118403 0.721370 0.037812 76 0 153
-0.214754 -0.112590 0.117774 153 76 0
-0.207103 0.272639 0.165765 76 0 153
-0.018017 0.322229 -0.252436 153 76 0
-0.236311 -0.488776 -0.079179 76 0 153
-0.289450 0.003592 0.012923 76 0 153
0.089443 -0.818009 0.002184 76 0 153
-0.099413 0.904413 -0.059312 76 0 153
-0.069183 -0.357804 0.276290 76 0 153
-0.083554 0.338672 -0.238356 153 76 0
0.086612 0.717843 -0.182429 76 0 153
-0.146245 0.596419 0.169333 76 0 153
0.180257 -0.485658 0.162679 153 76 0
0.160906 -0.411796 -0.193295 153 76 0
-0.205165 -0.647773 0.169123 76 0 153
-0.118571 -0.317371 0.210642 153 76 0
-0.262220 0.115176 0.070300 76 0 153
0.139504 0.619624 -0.185593 76 0 153
0.166392 -0.706779 0.230329 76 0 153
-0.120794 0.273639 -0.222931 153 76 0
