ply
format ascii 1.0
element vertex 1273
property float x
property float y
property float z
property uchar red
property uchar green
property uchar blue
end_header
0.144146 -0.344747 -0.233460 76 153 0
-0.107540 -0.654143 0.098969 76 153 0
-0.200927 0.196233 0.018511 76 153 0
0.243226 -0.198278 0.133619 76 153 0
-0.262494 -0.416818 0.085194 76 153 0
-0.222950 -0.516525 -0.161931 76 153 0
-0.161263 -0.072482 0.215631 76 153 0
0.109869 -0.075704 0.242127 76 153 0
-0.032749 -0.124766 -0.259089 76 153 0
0.022761 0.994485 -0.071363 76 0 153
-0.070703 -0.351364 -0.264191 76 153 0
0.031063 -0.172179 -0.273580 76 153 0
-0.145360 0.392430 -0.047464 153 0 76
0.161118 0.325505 -0.043532 153 0 76
-0.095175 -0.441768 -0.257634 76 153 0
-0.102298 0.684515 -0.042222 153 0 76
-0.262799 -0.552845 0.084060 76 153 0
-0.199138 0.161162 -0.070366 76 153 0
-0.116784 0.432409 -0.086929 153 0 76
0.132657 -0.657442 -0.164503 76 153 0
-0.274637 -0.270183 -0.035588 76 153 0
0.103876 0.748687 -0.023995 153 0 76
-0.132237 0.160185 0.169143 76 153 0
0.215274 0.128445 -0.052228 76 153 0
-0.109595 0.050439 -0.217960 76 153 0
0.264693 -0.238899 -0.078131 76 153 0
-0.002245 0.184525 0.207193 76 153 0
-0.011422 -0.015433 0.266393 76 153 0
-0.241942 0.039552 0.059624 76 153 0
0.104101 0.501557 -0.082689 153 0 76
0.148888 0.356780 -0.062768 153 0 76
-0.164009 -0.136489 -0.218689 76 153 0
0.091049 -0.107812 0.262186 76 153 0
0.062251 0.593515 -0.099175 153 0 76
0.149982 -0.111756 0.231132 76 153 0
0.099934 0.579901 -0.065163 153 0 76
0.034806 0.286879 0.174573 76 153 0
-0.177984 -0.482264 0.213399 76 153 0
0.044064 -0.426300 0.276007 76 153 0
-0.051864 0.873702 0.089659 153 0 76
-0.106117 0.971162 0.018034 76 0 153
-0.188882 0.125164 0.118249 76 153 0
0.044048 0.128279 -0.215413 76 153 0
-0.269141 -0.264919 -0.056099 76 153 0
0.115324 -0.393439 0.254388 76 153 0
0.206665 -0.424943 0.186174 76 153 0
0.008952 0.793556 -0.100753 153 0 76
0.217834 -0.295180 0.175003 76 153 0
0.268351 -0.118212 -0.031990 76 153 0
-0.014855 0.117338 0.226672 76 153 0
0.109647 0.619843 0.045588 153 0 76
0.137202 0.415166 -0.060680 153 0 76
-0.108228 0.196449 0.172017 76 153 0
0.194789 0.156485 0.092377 76 153 0
-0.263624 -0.017998 0.030206 76 153 0
-0.134749 0.488908 0.020074 153 0 76
0.087209 -0.016863 0.252770 76 153 0
0.083975 0.250173 0.168874 76 153 0
0.253736 -0.314622 0.115416 76 153 0
-0.262876 -0.440202 0.083771 76 153 0
-0.062747 -0.661309 0.242433 76 153 0
-0.029727 -0.653539 -0.124430 76 153 0
-0.142479 0.417384 0.044068 153 0 76
0.133184 -0.135290 -0.236869 76 153 0
-0.275021 -0.546385 0.009998 76 153 0
0.065186 0.663455 0.095467 153 0 76
-0.236830 -0.010655 -0.113416 76 153 0
0.256606 -0.169992 0.110375 76 153 0
-0.259333 -0.617325 0.075174 76 153 0
-0.087445 0.995590 0.043312 76 0 153
-0.256264 -0.232689 -0.104155 76 153 0
0.145729 -0.444249 -0.232546 76 153 0
-0.256684 -0.614061 -0.077234 76 153 0
-0.149041 0.376504 0.049780 153 0 76
0.262070 -0.449771 -0.087923 76 153 0
-0.090216 0.893998 -0.021157 76 0 153
-0.210730 0.162421 -0.004749 76 153 0
0.268590 -0.178276 -0.063585 76 153 0
-0.054861 0.956229 -0.090990 76 0 153
0.146357 -0.111143 -0.229391 76 153 0
0.145712 0.325031 -0.080411 153 0 76
0.111789 -0.625710 0.255741 76 153 0
0.001047 0.013317 -0.255572 76 153 0
-0.069714 0.913036 -0.049891 76 0 153
0.253072 0.030017 0.033851 76 153 0
0.069455 0.986631 -0.018482 76 0 153
-0.113743 -0.385442 0.254461 76 153 0
-0.205311 -0.657194 0.034644 76 153 0
-0.206957 0.084329 0.112180 76 153 0
-0.085160 0.233442 0.172951 76 153 0
-0.235368 -0.038301 0.104847 76 153 0
-0.239543 -0.123547 0.094904 76 153 0
0.027405 0.595490 0.117523 153 0 76
-0.208629 -0.379399 -0.178465 76 153 0
-0.042693 -0.652397 0.089568 76 153 0
-0.275020 -0.195654 0.025976 76 153 0
0.157639 -0.302263 -0.225669 76 153 0
0.105404 0.244184 0.158507 76 153 0
0.244098 -0.456758 -0.127822 76 153 0
0.061948 0.992740 -0.083478 76 0 153
0.064930 0.682602 -0.089602 153 0 76
-0.058427 0.383539 0.147434 153 0 76
0.165816 -0.339451 0.225236 76 153 0
-0.258699 0.007995 0.027516 76 153 0
-0.054585 -0.660664 -0.237708 76 153 0
0.146616 -0.441638 0.236322 76 153 0
-0.058944 0.906209 0.094773 76 0 153
-0.275019 -0.176923 -0.000636 76 153 0
-0.019248 0.815650 -0.097246 153 0 76
-0.275020 -0.203551 -0.020300 76 153 0
-0.011683 0.995590 0.071210 76 0 153
0.276476 -0.502240 0.022961 76 153 0
0.022510 0.919783 0.107497 76 0 153
-0.121504 0.558302 -0.010940 153 0 76
0.152718 0.151618 0.153630 76 153 0
0.112688 0.677413 -0.005609 153 0 76
0.244524 -0.020827 -0.103302 76 153 0
0.060994 -0.655606 0.173440 76 153 0
0.192951 0.228765 -0.015880 76 153 0
0.032556 -0.651278 0.048314 76 153 0
-0.205934 -0.174352 0.185431 76 153 0
-0.249457 -0.531738 0.120308 76 153 0
0.053727 -0.546939 0.273419 76 153 0
-0.132425 -0.163294 -0.239303 76 153 0
-0.188474 0.214850 0.054314 76 153 0
-0.272390 -0.186307 0.048260 76 153 0
-0.083627 0.737866 0.069453 153 0 76
-0.030558 0.896544 -0.079565 76 0 153
-0.024707 0.926980 -0.101401 76 0 153
0.032359 0.981077 0.044776 76 0 153
-0.048967 -0.657020 -0.196619 76 153 0
0.043218 0.879485 0.075592 76 0 153
-0.017769 0.694215 0.111740 153 0 76
-0.225825 0.006194 0.129754 76 153 0
-0.146237 -0.595617 -0.231301 76 153 0
-0.004716 -0.231505 -0.273603 76 153 0
0.106599 -0.653248 0.064739 76 153 0
-0.167661 -0.459521 -0.219043 76 153 0
0.156127 0.162269 -0.141566 76 153 0
0.275341 -0.107532 0.028846 76 153 0
0.062607 0.901255 -0.036230 76 0 153
0.188319 -0.614887 0.194046 76 153 0
-0.076341 -0.652416 0.063820 76 153 0
-0.078637 -0.209742 -0.262065 76 153 0
-0.234283 -0.167425 0.146489 76 153 0
0.006252 0.438419 -0.143012 153 0 76
0.236033 -0.356509 0.146078 76 153 0
0.138194 0.437610 0.050548 153 0 76
-0.270444 -0.436008 -0.051240 76 153 0
0.096259 0.479518 0.100780 153 0 76
0.028477 0.995590 -0.016469 76 0 153
-0.038339 -0.225022 -0.272863 76 153 0
-0.032841 -0.659623 -0.239300 76 153 0
-0.075349 0.012848 0.248722 76 153 0
-0.059122 0.678446 0.096777 153 0 76
-0.191051 -0.066737 0.191318 76 153 0
0.209629 -0.577063 -0.178922 76 153 0
-0.212410 -0.034576 0.141283 76 153 0
0.030463 -0.267751 0.277892 76 153 0
-0.077203 0.396140 0.134097 153 0 76
-0.275020 -0.253783 0.016295 76 153 0
0.052661 -0.479735 0.273704 76 153 0
0.105649 0.186452 0.177693 76 153 0
0.093054 0.169239 0.190727 76 153 0
0.207413 0.166980 -0.038398 76 153 0
0.145275 -0.138821 0.235524 76 153 0
-0.049070 0.776467 -0.089461 153 0 76
-0.228509 -0.583255 -0.152304 76 153 0
-0.031310 -0.056530 0.272812 76 153 0
0.249143 -0.662270 0.049883 76 153 0
-0.273554 -0.569401 -0.039632 76 153 0
-0.116747 0.538548 -0.046297 153 0 76
-0.107057 -0.596080 -0.253916 76 153 0
0.196919 -0.659198 0.136746 76 153 0
-0.272211 -0.337942 -0.044644 76 153 0
0.276475 -0.197120 -0.019330 76 153 0
-0.090773 0.226359 -0.167793 76 153 0
-0.133988 0.229385 -0.134731 76 153 0
0.188054 -0.174555 -0.200480 76 153 0
0.198709 0.070163 -0.133810 76 153 0
-0.048424 -0.322255 -0.270161 76 153 0
-0.047560 0.147212 -0.208399 76 153 0
0.099562 0.949906 -0.031719 76 0 153
-0.233599 -0.391323 -0.143486 76 153 0
0.104278 0.685861 -0.041104 153 0 76
0.187208 -0.379071 0.205630 76 153 0
-0.128711 -0.644336 0.237207 76 153 0
-0.215490 -0.087706 0.168057 76 153 0
-0.029562 0.665156 0.110927 153 0 76
0.255092 -0.037719 -0.007874 76 153 0
-0.243115 -0.112681 -0.120194 76 153 0
-0.184433 -0.190634 -0.202661 76 153 0
0.177544 -0.416132 0.215295 76 153 0
0.001874 -0.112474 -0.270332 76 153 0
0.214626 -0.542845 0.178212 76 153 0
-0.108766 0.612345 0.045704 153 0 76
-0.085881 0.423665 -0.118722 153 0 76
0.068502 -0.172255 -0.265147 76 153 0
-0.219642 -0.399995 -0.167453 76 153 0
-0.044285 0.050041 0.244662 76 153 0
0.030720 -0.009687 -0.261217 76 153 0
-0.090953 0.153958 0.196215 76 153 0
0.225777 -0.501339 0.163844 76 153 0
-0.021240 0.890205 0.109896 76 0 153
-0.005195 -0.413165 0.277892 76 153 0
-0.184902 -0.131547 -0.194692 76 153 0
-0.083063 0.977288 -0.021372 76 0 153
0.130793 0.075651 0.201487 76 153 0
-0.154302 0.246895 0.107557 76 153 0
-0.086294 0.943858 0.008731 76 0 153
-0.188213 -0.656356 -0.046040 76 153 0
-0.022237 -0.418488 -0.273604 76 153 0
0.012661 -0.568699 0.277893 76 153 0
-0.257242 -0.570865 0.104798 76 153 0
-0.095536 -0.543713 -0.257538 76 153 0
-0.058854 -0.652060 -0.058364 76 153 0
-0.265312 -0.163368 -0.070114 76 153 0
-0.015474 -0.170398 0.277858 76 153 0
-0.083046 -0.089023 -0.256056 76 153 0
0.265176 -0.615947 0.052484 76 153 0
-0.275020 -0.355298 0.026323 76 153 0
0.134676 -0.245327 0.243215 76 153 0
0.231385 0.075950 -0.054943 76 153 0
-0.215477 0.052820 0.117690 76 153 0
-0.094856 0.790477 0.042863 153 0 76
0.119659 -0.199098 0.251885 76 153 0
-0.104736 0.086310 -0.207445 76 153 0
-0.270907 -0.490336 0.053798 76 153 0
-0.106951 0.732277 0.012511 153 0 76
-0.062365 0.792421 -0.080347 153 0 76
-0.129229 0.380157 -0.085357 153 0 76
0.086403 0.881572 0.018626 76 0 153
-0.106263 0.345667 -0.121228 153 0 76
-0.265315 -0.514514 -0.070382 76 153 0
-0.215875 0.070292 -0.101474 76 153 0
0.079641 -0.444299 0.266475 76 153 0
0.210374 -0.660441 -0.124978 76 153 0
-0.073130 -0.653643 -0.108437 76 153 0
-0.269207 -0.409702 0.060142 76 153 0
-0.042831 0.986222 0.102237 76 0 153
-0.226880 -0.043343 -0.131882 76 153 0
0.202873 -0.630548 -0.185607 76 153 0
0.003792 -0.659370 -0.237625 76 153 0
0.108457 0.289972 0.141163 153 0 76
0.091271 -0.044943 -0.248850 76 153 0
-0.006524 0.030844 0.254223 76 153 0
0.157078 -0.656569 0.126008 76 153 0
-0.006597 0.568954 -0.118279 153 0 76
0.087978 -0.652210 -0.021737 76 153 0
0.225259 0.064213 0.095939 76 153 0
0.235518 -0.412225 -0.142683 76 153 0
-0.025330 0.739308 -0.101783 153 0 76
0.091574 0.981077 0.016769 76 0 153
-0.117905 -0.660751 -0.213807 76 153 0
0.227407 -0.437673 -0.156732 76 153 0
-0.165712 0.327111 -0.009404 153 0 76
0.044654 0.901255 0.059071 76 0 153
0.025786 0.879485 0.034530 76 0 153
-0.162681 -0.116767 0.219103 76 153 0
-0.065650 0.879485 0.033230 76 0 153
0.238393 0.075662 -0.016290 76 153 0
0.052855 0.981077 0.055522 76 0 153
0.065807 0.382484 -0.140244 153 0 76
-0.041385 0.994485 -0.000212 76 0 153
0.227602 -0.279422 -0.156393 76 153 0
0.209733 0.119299 0.087439 76 153 0
0.123862 0.471522 -0.062232 153 0 76
0.058341 0.844437 0.083112 153 0 76
0.102468 0.928208 -0.018126 76 0 153
-0.222197 -0.360554 -0.163235 76 153 0
-0.115225 -0.571225 0.253605 76 153 0
0.065155 0.802206 -0.077993 153 0 76
0.145863 0.397628 -0.047179 153 0 76
0.096324 0.843653 0.027835 153 0 76
0.047292 0.174441 -0.200689 76 153 0
0.212862 -0.323317 0.179976 76 153 0
0.000616 0.263878 0.184187 76 153 0
0.236312 -0.274886 0.145595 76 153 0
-0.199453 -0.592853 0.191832 76 153 0
0.154851 0.254754 -0.100284 76 153 0
0.264612 -0.520928 -0.078436 76 153 0
-0.066574 0.585732 -0.096540 153 0 76
0.080532 0.981077 0.040500 76 0 153
0.168810 0.250206 -0.078743 76 153 0
-0.273835 -0.414226 -0.038583 76 153 0
0.027898 0.923189 0.084955 76 0 153
-0.126492 -0.656946 -0.158774 76 153 0
-0.092081 0.102583 0.212996 76 153 0
0.119203 0.345937 0.113959 153 0 76
0.210533 -0.123421 0.149755 76 153 0
0.034313 -0.659428 -0.264376 76 153 0
-0.096403 0.810202 0.032193 153 0 76
0.276476 -0.536026 0.026209 76 153 0
-0.058991 -0.080655 0.253136 76 153 0
0.213188 -0.653320 -0.162616 76 153 0
-0.268218 -0.294005 0.063833 76 153 0
0.052633 -0.655012 -0.156242 76 153 0
-0.195153 -0.455759 0.196230 76 153 0
-0.104071 0.872220 0.026237 76 0 153
0.265833 -0.403554 -0.073876 76 153 0
-0.174674 -0.657964 0.136093 76 153 0
0.097118 -0.496362 -0.257504 76 153 0
0.094737 0.439713 -0.108778 153 0 76
0.243635 0.017892 0.085655 76 153 0
-0.115318 -0.653829 0.075699 76 153 0
-0.254653 -0.171151 0.111248 76 153 0
-0.091963 0.514051 -0.089993 153 0 76
0.031654 -0.142638 -0.273421 76 153 0
-0.094479 -0.278325 0.262108 76 153 0
-0.273309 -0.425044 0.044835 76 153 0
0.098606 0.625692 -0.060317 153 0 76
0.187691 0.103995 0.135421 76 153 0
-0.242690 -0.614639 0.117528 76 153 0
-0.156529 -0.311680 0.229758 76 153 0
0.033447 0.396032 0.152044 153 0 76
-0.116407 0.383170 0.105231 153 0 76
-0.048149 0.231997 -0.182793 76 153 0
0.175728 0.229667 -0.078669 76 153 0
-0.269386 -0.223598 0.059471 76 153 0
0.262175 -0.424887 0.091819 76 153 0
0.116109 -0.374518 -0.249647 76 153 0
0.041076 -0.110916 0.274454 76 153 0
0.276475 -0.257915 0.024337 76 153 0
-0.249700 -0.185104 -0.115598 76 153 0
-0.200323 -0.614308 0.181139 76 153 0
-0.064720 0.484230 -0.117566 153 0 76
0.236854 -0.533454 0.144658 76 153 0
-0.098222 0.844145 0.010024 153 0 76
-0.105402 0.752128 -0.004645 153 0 76
0.088157 -0.355299 0.264193 76 153 0
0.014277 0.295299 -0.170789 153 0 76
-0.107279 0.940167 -0.001675 76 0 153
-0.183403 -0.262751 -0.203691 76 153 0
-0.010275 -0.277732 0.277892 76 153 0
-0.141137 0.250602 -0.118882 76 153 0
0.051316 0.995590 0.012305 76 0 153
-0.064091 0.498637 0.119036 153 0 76
-0.101136 -0.655342 -0.140605 76 153 0
0.057850 -0.038442 -0.247756 76 153 0
-0.024562 0.879485 0.037300 76 0 153
0.136971 0.293440 -0.106939 153 0 76
-0.256296 -0.080423 -0.005716 76 153 0
0.046647 -0.350562 -0.271027 76 153 0
-0.033986 0.879485 -0.003672 76 0 153
-0.121908 -0.611424 0.246446 76 153 0
-0.028013 -0.439604 0.277892 76 153 0
-0.172931 -0.164559 0.218360 76 153 0
0.221616 0.039144 -0.114086 76 153 0
-0.106752 -0.657550 -0.181441 76 153 0
-0.258171 -0.591194 0.101127 76 153 0
-0.033146 0.603343 -0.110673 153 0 76
-0.146338 -0.409751 0.235642 76 153 0
-0.099260 0.788879 -0.023670 153 0 76
0.076318 0.869466 -0.079929 153 0 76
0.127994 0.148993 0.177333 76 153 0
-0.244369 0.052555 -0.000955 76 153 0
-0.103895 0.660581 0.047478 153 0 76
0.047383 -0.659344 -0.233189 76 153 0
0.242253 -0.122536 -0.096102 76 153 0
0.129174 -0.654628 0.093572 76 153 0
0.027304 -0.655675 -0.179933 76 153 0
-0.078016 -0.409278 0.266520 76 153 0
0.128917 -0.657478 0.172532 76 153 0
0.190483 -0.664364 0.177259 76 153 0
0.197043 -0.320411 0.195795 76 153 0
0.169533 -0.298673 0.223090 76 153 0
0.109709 0.715579 0.007477 153 0 76
-0.148485 0.059771 0.196268 76 153 0
-0.157978 0.292355 -0.070543 76 153 0
0.090494 0.522768 -0.090561 153 0 76
0.155147 -0.618136 -0.221698 76 153 0
-0.105022 0.623827 -0.046975 153 0 76
-0.113101 0.866180 -0.013610 153 0 76
-0.144474 0.122148 0.172501 76 153 0
-0.275020 -0.321515 0.029541 76 153 0
-0.002812 0.142146 0.219480 76 153 0
-0.067069 0.611515 -0.093931 153 0 76
0.010675 0.765267 0.107248 153 0 76
0.048319 0.845348 -0.092131 153 0 76
-0.082650 0.893998 0.034075 76 0 153
0.276476 -0.369874 0.011355 76 153 0
-0.165130 -0.223098 -0.220504 76 153 0
0.137392 -0.077437 -0.219282 76 153 0
0.248232 -0.109022 0.122102 76 153 0
-0.123021 0.222787 0.152690 76 153 0
-0.090480 -0.094153 0.261582 76 153 0
-0.265721 -0.138155 -0.062757 76 153 0
-0.079023 0.832439 -0.059333 153 0 76
-0.013146 -0.038188 0.257680 76 153 0
-0.078654 0.893998 -0.044515 76 0 153
0.276475 -0.227308 0.007217 76 153 0
-0.022270 0.861007 0.115760 153 0 76
-0.101725 -0.281743 -0.255879 76 153 0
0.032020 0.879485 -0.069229 76 0 153
-0.006263 0.956221 0.111245 76 0 153
0.048088 -0.643047 -0.264536 76 153 0
0.008662 -0.359919 -0.273604 76 153 0
-0.270354 -0.591123 -0.051372 76 153 0
-0.266412 -0.478416 0.070573 76 153 0
0.020112 0.009906 0.260956 76 153 0
0.004635 0.634736 -0.113146 153 0 76
-0.008438 -0.489970 -0.273604 76 153 0
0.159374 -0.420634 -0.224668 76 153 0
-0.258433 -0.344963 -0.096063 76 153 0
0.263641 -0.495108 0.086349 76 153 0
0.175345 0.104275 -0.146335 76 153 0
0.015774 -0.658566 0.229969 76 153 0
-0.025052 -0.206916 0.277891 76 153 0
-0.097370 0.765535 -0.037761 153 0 76
-0.054938 0.225398 0.187243 76 153 0
-0.251834 -0.661999 0.086682 76 153 0
-0.195929 -0.091036 -0.186464 76 153 0
-0.100874 0.977488 0.042942 76 0 153
0.261432 -0.203820 0.094587 76 153 0
-0.016572 0.893998 -0.006077 76 0 153
-0.233534 -0.659487 0.060452 76 153 0
-0.164255 -0.413855 0.225297 76 153 0
-0.209749 -0.507836 -0.177346 76 153 0
-0.207128 -0.325507 0.184254 76 153 0
-0.236077 0.039976 0.080988 76 153 0
0.016043 0.735090 0.109290 153 0 76
0.169172 -0.505957 0.223299 76 153 0
-0.119384 0.118639 -0.187337 76 153 0
-0.133625 0.144431 -0.169926 76 153 0
0.108301 -0.653840 -0.084822 76 153 0
0.092895 0.893998 -0.016347 76 0 153
0.164296 -0.587589 -0.221806 76 153 0
-0.191855 -0.411251 -0.195240 76 153 0
-0.271044 -0.166477 0.053075 76 153 0
-0.126383 -0.449109 0.247163 76 153 0
-0.208479 -0.206858 -0.178615 76 153 0
-0.159988 -0.079498 -0.199484 76 153 0
0.265113 -0.655445 -0.041740 76 153 0
-0.251870 0.002650 0.068428 76 153 0
0.003861 0.911600 0.109198 76 0 153
-0.263756 -0.645046 -0.044059 76 153 0
-0.070209 -0.131145 -0.258487 76 153 0
0.098101 0.478258 -0.094990 153 0 76
-0.106139 0.694357 0.030785 153 0 76
0.064042 0.583113 0.103366 153 0 76
0.270116 -0.066691 0.016275 76 153 0
-0.162033 0.150465 0.143332 76 153 0
-0.194275 -0.169044 -0.192761 76 153 0
-0.005251 -0.093067 -0.271630 76 153 0
0.234194 -0.178653 0.149262 76 153 0
-0.187058 -0.148668 0.204112 76 153 0
0.005229 0.971782 0.089166 76 0 153
-0.123722 0.086559 -0.196391 76 153 0
-0.101244 0.366831 0.124812 153 0 76
-0.097120 0.825715 -0.020552 153 0 76
-0.139190 0.179923 -0.149809 76 153 0
-0.132054 0.455249 0.055002 153 0 76
0.206296 0.077093 -0.116212 76 153 0
0.168590 -0.079475 0.196694 76 153 0
-0.233788 -0.342236 0.147446 76 153 0
0.177134 -0.612028 0.210830 76 153 0
-0.230771 0.078301 -0.048879 76 153 0
-0.222022 -0.573787 0.167826 76 153 0
0.009768 -0.200173 0.277891 76 153 0
-0.040198 -0.262958 -0.272365 76 153 0
0.115436 -0.066852 -0.242637 76 153 0
-0.090762 0.480363 0.104592 153 0 76
0.230472 -0.036688 -0.106767 76 153 0
-0.172188 0.255341 -0.065447 76 153 0
-0.111750 0.652554 -0.018158 153 0 76
-0.010577 0.499460 -0.131339 153 0 76
-0.165178 -0.042449 0.208389 76 153 0
-0.049459 0.912604 -0.092027 76 0 153
-0.275020 -0.227026 0.037760 76 153 0
-0.194321 0.054733 0.152723 76 153 0
0.142138 -0.374050 -0.234619 76 153 0
-0.004132 0.893998 0.048848 76 0 153
-0.209670 -0.481201 -0.177425 76 153 0
-0.196097 -0.420905 0.195286 76 153 0
-0.050619 -0.108377 0.272516 76 153 0
0.106759 0.691159 0.034866 153 0 76
-0.242370 -0.293321 -0.128293 76 153 0
0.132332 0.247974 0.134508 76 153 0
-0.163418 0.124898 -0.148142 76 153 0
-0.205095 0.181857 -0.006552 76 153 0
0.024803 -0.654493 0.154744 76 153 0
-0.080082 -0.658586 -0.212372 76 153 0
0.186211 -0.391788 -0.202339 76 153 0
0.089736 -0.290460 0.263769 76 153 0
-0.275020 -0.283393 0.013428 76 153 0
-0.193883 -0.559164 0.197500 76 153 0
0.091006 0.609609 -0.073395 153 0 76
-0.156619 0.374665 -0.017012 153 0 76
-0.161664 -0.522592 -0.222506 76 153 0
0.027878 0.994485 0.029830 76 0 153
0.271336 -0.589443 0.057491 76 153 0
0.204390 0.023690 0.158150 76 153 0
-0.143458 -0.135314 0.234394 76 153 0
-0.118749 -0.218953 0.251570 76 153 0
-0.064184 0.893998 0.066015 76 0 153
-0.084052 0.968953 -0.064425 76 0 153
0.078589 0.992706 0.071446 76 0 153
0.173931 -0.232700 0.218907 76 153 0
-0.038049 0.919778 0.099224 76 0 153
-0.275020 -0.460744 0.023776 76 153 0
-0.063784 -0.557406 -0.266046 76 153 0
-0.070468 -0.232767 -0.264254 76 153 0
0.058864 -0.652485 0.084820 76 153 0
-0.262614 -0.009562 -0.010060 76 153 0
0.135286 -0.160927 -0.238477 76 153 0
0.116694 0.626068 0.005471 153 0 76
0.245435 -0.441595 0.129795 76 153 0
-0.187919 -0.020463 -0.182449 76 153 0
0.063020 -0.159090 0.270830 76 153 0
-0.138046 0.218937 0.139244 76 153 0
-0.086516 0.606555 0.081054 153 0 76
0.181270 -0.451749 -0.207281 76 153 0
0.024714 0.332828 -0.162608 153 0 76
0.094683 0.857711 0.071222 153 0 76
-0.189718 -0.351967 -0.197377 76 153 0
-0.254235 -0.408008 -0.107744 76 153 0
0.144113 -0.270433 -0.233478 76 153 0
-0.002619 -0.202149 -0.273603 76 153 0
-0.275021 -0.537575 -0.028958 76 153 0
-0.078789 0.848627 0.079999 153 0 76
0.207650 -0.358322 0.185188 76 153 0
0.085385 0.678231 0.075731 153 0 76
-0.176766 0.203605 -0.089462 76 153 0
-0.093563 0.548248 -0.079146 153 0 76
0.145836 -0.658946 -0.182915 76 153 0
-0.022070 0.775085 -0.099767 153 0 76
0.184845 -0.655731 0.018885 76 153 0
0.059444 0.879485 -0.024316 76 0 153
-0.072717 0.991339 0.077249 76 0 153
0.132739 0.223310 -0.139925 76 153 0
0.137516 -0.655390 -0.109595 76 153 0
-0.168680 0.085749 0.164258 76 153 0
0.034846 -0.240596 -0.273603 76 153 0
-0.024082 -0.606075 0.277693 76 153 0
-0.048572 -0.545807 0.274410 76 153 0
0.100067 -0.657616 -0.187275 76 153 0
0.187780 0.216974 -0.055667 76 153 0
-0.025402 0.462747 -0.136315 153 0 76
0.258618 -0.643318 0.081039 76 153 0
-0.028969 0.901255 0.063322 76 0 153
0.080430 -0.184029 0.266262 76 153 0
0.276476 -0.406668 -0.013125 76 153 0
0.107219 0.079449 -0.209399 76 153 0
-0.259380 -0.432653 -0.092531 76 153 0
-0.086753 0.435890 0.119807 153 0 76
-0.195284 0.215699 -0.018086 76 153 0
-0.203890 -0.549708 -0.183206 76 153 0
-0.054766 -0.207379 0.272749 76 153 0
0.231520 -0.059719 -0.139936 76 153 0
0.185243 -0.282047 -0.203306 76 153 0
-0.068471 0.106294 0.219453 76 153 0
0.247926 -0.598274 0.125236 76 153 0
0.005334 -0.177395 0.277891 76 153 0
0.243130 0.015872 -0.085761 76 153 0
-0.142023 -0.163141 0.238049 76 153 0
-0.184181 0.253992 0.003437 76 153 0
0.253304 -0.662339 0.022682 76 153 0
-0.161367 -0.454643 0.226965 76 153 0
-0.183816 -0.626408 0.206977 76 153 0
0.065892 0.893998 -0.064487 76 0 153
-0.103123 -0.325475 0.259792 76 153 0
0.019145 -0.263392 -0.273603 76 153 0
0.189124 0.225089 0.045849 76 153 0
0.266607 -0.356529 -0.070988 76 153 0
-0.258063 -0.260961 -0.097440 76 153 0
0.127229 0.535975 0.011727 153 0 76
0.154401 -0.192360 -0.227538 76 153 0
-0.256503 -0.123788 0.006833 76 153 0
-0.054427 0.812311 0.087426 153 0 76
0.128307 0.311304 -0.109932 153 0 76
-0.214987 -0.658437 0.069912 76 153 0
0.112063 0.552567 -0.051676 153 0 76
-0.068249 -0.653421 0.109256 76 153 0
-0.218271 0.118944 -0.046255 76 153 0
0.232087 -0.481100 0.152914 76 153 0
0.214138 0.123275 0.066548 76 153 0
-0.064353 -0.654217 -0.129833 76 153 0
-0.100429 0.767226 0.030123 153 0 76
0.041233 0.565591 0.116392 153 0 76
0.082834 -0.423146 0.265619 76 153 0
0.045733 0.543636 0.119532 153 0 76
0.076885 0.112795 0.215550 76 153 0
-0.185512 -0.359514 0.205871 76 153 0
-0.013741 0.879485 -0.049706 76 0 153
0.054669 -0.654189 0.138992 76 153 0
0.220456 -0.165190 -0.168007 76 153 0
-0.227157 0.037135 -0.103260 76 153 0
-0.115393 0.607111 -0.018261 153 0 76
-0.031984 -0.073649 -0.262922 76 153 0
0.154476 0.340374 0.061622 153 0 76
0.180581 0.032829 0.177882 76 153 0
-0.274947 -0.163141 -0.026330 76 153 0
0.093199 0.591999 0.077433 153 0 76
0.066633 -0.651547 0.005524 76 153 0
-0.121457 0.425730 0.085677 153 0 76
-0.028938 0.241822 -0.184992 76 153 0
-0.212547 -0.344701 -0.174548 76 153 0
-0.019100 0.981077 0.025722 76 0 153
-0.110855 0.269428 -0.141445 76 153 0
-0.275020 -0.374647 -0.027518 76 153 0
-0.069769 -0.660950 -0.254656 76 153 0
0.202623 0.195403 0.014788 76 153 0
-0.131007 0.459087 -0.051783 153 0 76
-0.268012 -0.358155 -0.060315 76 153 0
-0.275020 -0.457625 -0.016636 76 153 0
-0.202086 0.070670 -0.125113 76 153 0
-0.010780 -0.653687 0.135927 76 153 0
0.009272 0.476480 -0.135734 153 0 76
0.158976 -0.461078 -0.224898 76 153 0
0.114669 -0.655719 0.148194 76 153 0
-0.238825 -0.612158 -0.127288 76 153 0
0.129084 -0.041352 -0.226225 76 153 0
-0.097700 0.981077 -0.049490 76 0 153
0.265774 -0.327598 -0.074099 76 153 0
-0.060445 0.716162 -0.088327 153 0 76
-0.057377 0.173054 0.202301 76 153 0
-0.058868 -0.121857 0.256711 76 153 0
0.211237 -0.468470 0.181601 76 153 0
0.059600 -0.658576 0.222377 76 153 0
0.091965 -0.248064 -0.258884 76 153 0
-0.232446 -0.295384 -0.145483 76 153 0
-0.091674 0.185678 -0.180892 76 153 0
-0.053149 0.093495 0.227820 76 153 0
0.212529 -0.172289 0.180276 76 153 0
-0.034131 -0.397046 0.277892 76 153 0
-0.144651 -0.661792 0.207377 76 153 0
0.153294 -0.124579 0.215317 76 153 0
-0.003808 0.332710 0.167513 153 0 76
0.043137 0.315984 -0.161006 153 0 76
0.190718 -0.163245 0.202018 76 153 0
-0.110137 0.364298 -0.112316 153 0 76
0.094021 0.981077 -0.008061 76 0 153
-0.254992 -0.405517 0.110720 76 153 0
-0.071935 0.690039 0.086423 153 0 76
0.186206 0.174135 0.097010 76 153 0
0.149061 -0.068217 0.226953 76 153 0
-0.086282 -0.655910 -0.165119 76 153 0
-0.033269 0.994202 -0.096578 76 0 153
0.231865 0.095963 0.023159 76 153 0
-0.248075 -0.370352 -0.118413 76 153 0
0.026178 -0.042747 -0.261331 76 153 0
-0.200086 0.032219 -0.152910 76 153 0
-0.221901 0.123890 0.004817 76 153 0
0.088981 0.353033 0.137655 153 0 76
-0.272881 -0.621687 0.025795 76 153 0
0.251667 -0.504119 0.119001 76 153 0
0.147426 -0.402045 0.235854 76 153 0
0.254791 -0.020578 0.073601 76 153 0
0.003960 0.091531 -0.230418 76 153 0
-0.093424 -0.174625 0.262380 76 153 0
-0.047238 0.901255 0.032501 76 0 153
-0.075422 0.356266 0.143929 153 0 76
-0.153336 -0.658166 -0.157568 76 153 0
0.259171 -0.269526 -0.098739 76 153 0
-0.094121 -0.538432 0.262205 76 153 0
0.024857 -0.344520 -0.273604 76 153 0
0.060051 -0.270250 -0.267435 76 153 0
-0.050403 0.879485 -0.038822 76 0 153
-0.050327 -0.651623 0.048276 76 153 0
0.198053 -0.481145 0.194786 76 153 0
-0.164917 -0.326639 -0.220627 76 153 0
0.045291 -0.075426 -0.257958 76 153 0
0.226106 -0.346450 -0.158985 76 153 0
0.276475 -0.322688 0.022147 76 153 0
0.172874 0.298011 -0.015239 153 0 76
-0.022241 -0.460315 0.277892 76 153 0
0.237078 -0.661654 -0.081270 76 153 0
0.136930 0.214424 0.143666 76 153 0
0.113998 0.600021 0.035326 153 0 76
0.078861 -0.653692 -0.107362 76 153 0
-0.070657 0.939510 0.083563 76 0 153
0.215546 0.105868 -0.076878 76 153 0
-0.117448 0.304732 0.125401 153 0 76
-0.013440 0.879485 0.075917 76 0 153
-0.104408 0.596377 0.056610 153 0 76
-0.265424 -0.136830 0.066458 76 153 0
0.258235 -0.057713 -0.082956 76 153 0
0.035200 0.865528 0.111280 153 0 76
-0.101263 -0.652921 -0.051061 76 153 0
0.093175 0.719491 -0.055086 153 0 76
0.244943 -0.000569 0.102828 76 153 0
0.096171 0.012049 -0.239511 76 153 0
0.059924 -0.384222 0.271758 76 153 0
0.081404 0.930036 -0.032165 76 0 153
0.276476 -0.484740 0.004407 76 153 0
0.087731 -0.187410 -0.260018 76 153 0
-0.116877 0.596050 0.020348 153 0 76
-0.212901 -0.132587 0.172203 76 153 0
-0.054342 0.447769 -0.131525 153 0 76
0.029540 0.375921 0.157072 153 0 76
0.098147 -0.145755 -0.257056 76 153 0
0.019715 0.892666 0.087148 76 0 153
0.151035 -0.080066 0.210604 76 153 0
-0.068180 0.937875 -0.052016 76 0 153
0.024768 -0.652042 0.082909 76 153 0
-0.102487 -0.349458 0.259963 76 153 0
-0.097659 -0.006667 0.247950 76 153 0
0.086774 -0.250039 0.264563 76 153 0
0.008876 -0.048904 0.270481 76 153 0
0.031093 0.476596 -0.132438 153 0 76
-0.149517 0.340186 0.069791 153 0 76
0.047858 -0.377636 -0.270703 76 153 0
-0.107977 0.558835 -0.053833 153 0 76
0.270754 -0.465661 -0.055514 76 153 0
-0.022855 -0.567942 0.277893 76 153 0
0.106953 0.656848 -0.040197 153 0 76
-0.214163 -0.458001 0.177220 76 153 0
0.016173 -0.650731 -0.021839 76 153 0
-0.007003 0.981077 -0.093126 76 0 153
0.025951 -0.287733 0.277892 76 153 0
0.034630 0.694816 0.107563 153 0 76
0.193722 -0.354279 0.199116 76 153 0
0.048097 0.994485 0.041847 76 0 153
-0.069658 0.777649 0.079032 153 0 76
-0.275021 -0.557882 0.032681 76 153 0
-0.008251 0.908126 -0.107359 76 0 153
0.125936 0.529294 -0.024272 153 0 76
0.209492 -0.658616 -0.093396 76 153 0
0.216202 -0.648003 0.162401 76 153 0
-0.071211 0.327381 -0.148450 153 0 76
-0.026078 -0.235648 0.277891 76 153 0
0.257738 -0.616893 0.084578 76 153 0
0.081247 -0.658535 -0.211667 76 153 0
-0.074318 -0.476900 0.267511 76 153 0
0.106930 0.870045 0.034155 153 0 76
-0.261233 -0.231019 0.089901 76 153 0
0.136431 -0.093379 0.240163 76 153 0
0.034293 0.041985 0.250412 76 153 0
-0.039897 0.703572 0.105055 153 0 76
-0.242400 -0.438997 -0.128243 76 153 0
-0.190407 -0.657916 0.107422 76 153 0
-0.272531 -0.450692 0.047737 76 153 0
0.229513 -0.256546 0.157371 76 153 0
0.012186 0.873671 0.104534 76 0 153
-0.031281 0.702902 -0.103129 153 0 76
0.164962 0.329570 0.030472 153 0 76
0.206823 -0.041930 -0.163109 76 153 0
0.214567 0.154206 -0.023864 76 153 0
-0.200915 0.104583 -0.105330 76 153 0
0.072761 0.524557 0.109148 153 0 76
-0.245163 -0.150955 -0.123180 76 153 0
-0.275020 -0.305237 -0.010530 76 153 0
-0.026847 0.558059 -0.117059 153 0 76
0.131827 -0.177213 0.244859 76 153 0
-0.074487 0.879485 -0.030179 76 0 153
-0.000733 0.670993 -0.110317 153 0 76
-0.199602 0.015898 0.165105 76 153 0
-0.144007 -0.660105 -0.195807 76 153 0
-0.020331 0.734793 0.107775 153 0 76
-0.035403 -0.205474 -0.273603 76 153 0
-0.026825 -0.123784 0.259356 76 153 0
0.180326 0.261158 0.038281 76 153 0
0.011459 0.954652 -0.103932 76 0 153
0.262356 -0.596950 -0.086432 76 153 0
-0.247920 -0.079669 0.062761 76 153 0
-0.240345 -0.441361 0.136089 76 153 0
0.021711 0.748386 -0.102409 153 0 76
0.272097 -0.618489 -0.026881 76 153 0
0.089907 0.438505 0.118222 153 0 76
0.110610 -0.534952 0.257110 76 153 0
0.172101 0.159627 0.129853 76 153 0
-0.190119 -0.581047 -0.196977 76 153 0
0.252635 -0.016920 -0.079593 76 153 0
-0.163151 0.322079 0.037329 153 0 76
0.050663 -0.309074 -0.269951 76 153 0
-0.275020 -0.218425 0.003186 76 153 0
0.067144 0.504963 -0.112429 153 0 76
-0.257574 -0.076102 -0.045654 76 153 0
0.141736 0.444547 0.032204 153 0 76
0.180100 0.137116 -0.124762 76 153 0
0.114121 0.867509 0.007687 153 0 76
-0.271936 -0.278753 0.049958 76 153 0
-0.261025 -0.020792 -0.040471 76 153 0
-0.130113 0.011877 0.224722 76 153 0
-0.151597 -0.556688 -0.228318 76 153 0
0.226539 -0.658431 0.018522 76 153 0
-0.093863 0.811317 -0.037043 153 0 76
-0.009241 -0.325518 -0.273604 76 153 0
-0.032920 0.642724 -0.107552 153 0 76
-0.159987 0.257022 0.091839 76 153 0
-0.151086 -0.655522 0.097166 76 153 0
-0.254516 -0.525728 -0.107258 76 153 0
0.023915 -0.419511 -0.273604 76 153 0
0.091581 0.918676 -0.053376 76 0 153
-0.068626 -0.266551 0.269036 76 153 0
-0.020898 0.508183 0.132815 153 0 76
0.145863 0.378666 0.063925 153 0 76
-0.004597 0.879485 -0.014498 76 0 153
0.221848 -0.469588 -0.166362 76 153 0
-0.275020 -0.344741 -0.025270 76 153 0
-0.178069 0.258624 0.044112 76 153 0
-0.142273 0.242199 0.125479 76 153 0
0.016939 0.979145 -0.083604 76 0 153
0.159604 -0.052479 0.222326 76 153 0
-0.229304 -0.315637 0.155213 76 153 0
0.044703 0.893998 -0.085600 76 0 153
-0.121756 0.127250 0.187373 76 153 0
-0.178353 -0.223216 0.213029 76 153 0
-0.058454 -0.463660 0.271762 76 153 0
0.222329 0.076412 -0.088164 76 153 0
0.258760 -0.562538 0.104565 76 153 0
0.018233 0.168952 0.211708 76 153 0
0.051588 -0.123666 0.254224 76 153 0
0.267205 -0.242142 0.073043 76 153 0
0.238733 -0.347041 -0.137115 76 153 0
-0.107688 -0.657769 0.188941 76 153 0
0.076321 -0.152103 -0.262940 76 153 0
-0.189422 -0.090692 0.196934 76 153 0
-0.215624 0.135240 0.042167 76 153 0
-0.170624 -0.033305 0.192132 76 153 0
0.182032 -0.079682 -0.178361 76 153 0
0.099437 -0.407887 -0.256882 76 153 0
-0.137204 -0.496008 -0.236628 76 153 0
-0.032901 0.994485 0.042342 76 0 153
0.084080 0.134976 -0.202677 76 153 0
0.231281 -0.190179 -0.150020 76 153 0
-0.107139 0.156875 0.185894 76 153 0
-0.206885 -0.297741 -0.180209 76 153 0
0.088309 -0.539290 0.264152 76 153 0
0.091945 0.956394 0.056236 76 0 153
-0.272289 -0.227298 -0.044349 76 153 0
-0.275020 -0.403315 0.018100 76 153 0
-0.052130 0.343041 -0.152850 153 0 76
0.088807 -0.382346 0.264019 76 153 0
0.151933 -0.266753 0.233252 76 153 0
0.047661 0.053849 0.242880 76 153 0
-0.021229 0.914028 -0.082064 76 0 153
-0.166705 -0.602322 -0.219408 76 153 0
-0.129658 0.515658 0.010063 153 0 76
0.076318 -0.494505 0.267365 76 153 0
0.058954 0.900778 0.094768 76 0 153
0.276475 -0.199986 0.003423 76 153 0
0.110511 -0.341543 -0.252879 76 153 0
0.091820 0.994576 -0.044364 76 0 153
0.105690 0.445800 0.100467 153 0 76
0.101168 0.792158 0.025282 153 0 76
0.078742 0.485907 0.114228 153 0 76
-0.163358 -0.655450 -0.068076 76 153 0
-0.262295 -0.174537 0.085894 76 153 0
0.124241 -0.527709 -0.244953 76 153 0
0.240859 -0.177575 -0.133430 76 153 0
0.254131 -0.048156 0.091763 76 153 0
-0.118453 0.157558 -0.174845 76 153 0
-0.263777 -0.194820 -0.076115 76 153 0
-0.254979 -0.038797 -0.036736 76 153 0
-0.163390 -0.260529 -0.221509 76 153 0
0.263475 -0.526901 0.086969 76 153 0
0.013635 0.567425 -0.118398 153 0 76
-0.255142 -0.501877 -0.106173 76 153 0
0.000249 -0.662732 0.267407 76 153 0
-0.183345 -0.388780 0.208038 76 153 0
-0.081948 0.444371 -0.116420 153 0 76
-0.262641 -0.458770 -0.080358 76 153 0
0.078836 0.890554 -0.036612 76 0 153
-0.126691 -0.017313 0.233964 76 153 0
0.169232 0.207644 0.106978 76 153 0
-0.225228 -0.636606 -0.155336 76 153 0
-0.141809 0.365073 -0.069337 153 0 76
-0.256932 -0.104595 -0.099478 76 153 0
-0.231886 -0.283581 0.150740 76 153 0
0.052040 0.117608 0.220763 76 153 0
-0.264649 -0.090775 -0.059349 76 153 0
-0.082045 -0.652550 -0.060688 76 153 0
0.223258 0.112040 0.045096 76 153 0
0.224326 -0.551076 -0.162070 76 153 0
0.199118 -0.013759 -0.172804 76 153 0
-0.007860 -0.654493 0.155786 76 153 0
-0.228751 -0.258872 -0.151882 76 153 0
-0.049841 0.269537 -0.171072 76 153 0
0.166901 -0.648246 0.213190 76 153 0
0.016584 0.309418 0.171967 76 153 0
-0.109098 -0.481665 0.257143 76 153 0
0.261932 -0.021778 -0.041853 76 153 0
0.144864 0.071953 -0.190449 76 153 0
-0.164502 -0.123070 0.199909 76 153 0
-0.102292 0.728297 0.034908 153 0 76
0.053154 0.487209 0.128714 153 0 76
-0.011432 0.607749 0.119540 153 0 76
0.149459 -0.655157 0.084538 76 153 0
0.102430 0.909884 -0.039262 76 0 153
0.117689 0.395045 0.102193 153 0 76
-0.101671 0.940327 0.040023 76 0 153
0.099970 0.222669 -0.164559 76 153 0
-0.266300 -0.103552 0.069583 76 153 0
0.220642 0.133253 0.025095 76 153 0
-0.178656 -0.292313 0.212726 76 153 0
-0.010540 -0.056924 -0.268554 76 153 0
-0.267770 -0.479758 -0.061219 76 153 0
0.247619 -0.617693 -0.111304 76 153 0
0.275849 -0.235636 -0.036494 76 153 0
-0.036335 0.394149 0.151253 153 0 76
-0.055074 0.423415 0.140438 153 0 76
0.077452 -0.656009 0.257730 76 153 0
0.093171 -0.655216 -0.142450 76 153 0
0.274871 -0.468358 0.044437 76 153 0
-0.115609 -0.408461 -0.249095 76 153 0
-0.059106 -0.231986 0.271586 76 153 0
-0.029395 0.062185 0.244144 76 153 0
0.263270 -0.193584 -0.083441 76 153 0
-0.264810 -0.110456 -0.064620 76 153 0
0.051598 0.241265 0.183765 76 153 0
-0.142062 -0.510334 0.238111 76 153 0
0.006131 0.940255 -0.084878 76 0 153
0.106594 0.909736 0.005409 76 0 153
-0.086294 0.907880 -0.005911 76 0 153
-0.110945 0.681091 0.014172 153 0 76
0.001065 0.101964 0.231351 76 153 0
-0.008047 0.867935 -0.110968 153 0 76
-0.224733 -0.296601 0.163129 76 153 0
0.215423 -0.213127 -0.173126 76 153 0
0.092287 0.760168 0.054564 153 0 76
0.258939 -0.422702 -0.099607 76 153 0
0.107512 -0.113646 0.254252 76 153 0
-0.049730 -0.047461 -0.261394 76 153 0
-0.267817 -0.201501 0.065325 76 153 0
-0.019473 -0.368777 0.277892 76 153 0
0.268835 -0.484430 -0.062677 76 153 0
-0.206656 0.147618 0.061770 76 153 0
0.121267 -0.285338 -0.246669 76 153 0
-0.066174 0.918862 0.058310 76 0 153
-0.245792 -0.371471 0.126655 76 153 0
-0.225537 -0.661635 0.109865 76 153 0
-0.189855 -0.001808 -0.178000 76 153 0
0.019873 0.052794 -0.242876 76 153 0
0.257178 -0.582817 -0.105168 76 153 0
0.056729 0.010195 0.254984 76 153 0
-0.141754 -0.092252 -0.231095 76 153 0
0.276475 -0.283787 0.012862 76 153 0
-0.275020 -0.248034 0.034559 76 153 0
0.258251 -0.204973 -0.102171 76 153 0
-0.258236 -0.207478 0.101084 76 153 0
0.021064 -0.022380 0.265589 76 153 0
-0.236607 0.076690 0.004858 76 153 0
0.153859 -0.285959 0.232140 76 153 0
0.112463 0.026928 -0.225875 76 153 0
0.002279 -0.651891 0.080776 76 153 0
0.104950 0.724238 -0.027354 153 0 76
-0.220213 -0.256686 0.170959 76 153 0
0.225069 0.079448 0.078456 76 153 0
0.247529 0.044067 -0.034309 76 153 0
0.197698 -0.123353 0.166637 76 153 0
-0.114831 -0.094308 -0.247799 76 153 0
0.096589 0.987526 0.051705 76 0 153
-0.168661 0.278963 -0.052149 76 153 0
-0.242043 -0.642413 0.122702 76 153 0
-0.233629 -0.123412 -0.102855 76 153 0
0.241614 -0.083832 -0.111702 76 153 0
0.004149 0.609375 -0.115125 153 0 76
0.046362 0.572518 -0.110011 153 0 76
-0.141658 -0.552476 0.238345 76 153 0
-0.156996 0.349792 -0.035540 153 0 76
0.242871 -0.536258 -0.129948 76 153 0
0.011932 0.531694 -0.125176 153 0 76
0.224192 -0.554525 0.166590 76 153 0
-0.262121 -0.272816 0.086585 76 153 0
-0.102206 0.911732 0.041354 76 0 153
0.073691 0.944616 0.049812 76 0 153
0.263438 -0.550528 0.087107 76 153 0
0.186069 -0.000150 0.187168 76 153 0
0.024497 -0.190956 -0.273603 76 153 0
-0.132677 -0.384442 -0.239241 76 153 0
-0.229719 -0.563450 -0.150207 76 153 0
0.263132 -0.577499 -0.083959 76 153 0
0.126920 -0.410151 0.247693 76 153 0
-0.255613 -0.136126 -0.097888 76 153 0
0.072260 -0.423977 -0.264164 76 153 0
-0.065839 0.365138 -0.143215 153 0 76
-0.252991 -0.035800 0.026726 76 153 0
0.177211 -0.130751 -0.202903 76 153 0
0.110634 -0.654631 0.246688 76 153 0
-0.227852 0.055983 0.091795 76 153 0
0.105461 -0.224366 0.259555 76 153 0
-0.117326 0.300649 -0.122340 153 0 76
0.029369 -0.480762 -0.273604 76 153 0
0.276475 -0.328199 -0.013700 76 153 0
-0.005745 0.474863 0.140331 153 0 76
-0.070362 -0.036657 -0.241178 76 153 0
0.027691 0.581899 -0.114257 153 0 76
-0.117092 -0.653958 -0.074739 76 153 0
0.034683 -0.565830 0.277893 76 153 0
0.139725 -0.222265 0.240300 76 153 0
-0.218956 -0.663604 -0.129220 76 153 0
-0.041498 0.893998 -0.063344 76 0 153
-0.047458 0.975400 0.074808 76 0 153
-0.085158 0.105076 -0.211099 76 153 0
-0.011591 0.427687 -0.145064 153 0 76
-0.066666 0.657370 -0.090032 153 0 76
0.024694 0.819115 -0.095897 153 0 76
-0.243926 -0.315090 0.129887 76 153 0
-0.088854 0.720416 0.064192 153 0 76
0.097452 0.872304 -0.044833 153 0 76
0.272545 -0.279775 0.053115 76 153 0
0.021043 0.995590 0.049312 76 0 153
-0.049446 0.554375 -0.110896 153 0 76
-0.084717 -0.113066 0.260944 76 153 0
0.241762 -0.378245 0.136157 76 153 0
-0.106433 0.979791 -0.025310 76 0 153
0.154117 0.130524 -0.156591 76 153 0
0.246103 -0.266503 0.128636 76 153 0
0.175672 0.010511 -0.188653 76 153 0
0.188004 0.139723 0.113849 76 153 0
-0.157574 -0.628406 0.228878 76 153 0
-0.201024 0.148990 0.081251 76 153 0
-0.065738 0.319529 0.157632 153 0 76
0.030219 0.032064 -0.249543 76 153 0
0.128467 -0.560939 0.246801 76 153 0
-0.143897 -0.068457 0.228901 76 153 0
-0.240152 0.006099 -0.100713 76 153 0
-0.058258 -0.653823 0.126443 76 153 0
-0.237556 0.025664 0.093251 76 153 0
0.273249 -0.556561 -0.046204 76 153 0
-0.045188 0.943003 0.100902 76 0 153
-0.096973 0.303550 -0.138839 153 0 76
-0.275021 -0.560089 -0.004043 76 153 0
-0.068662 0.297353 -0.156792 76 153 0
-0.052771 -0.612998 0.268503 76 153 0
0.123573 -0.625254 -0.244455 76 153 0
-0.175975 0.065163 -0.162038 76 153 0
0.073826 0.362662 -0.139991 153 0 76
0.043895 0.196527 0.199257 76 153 0
0.266804 -0.091923 -0.059687 76 153 0
0.116483 0.346114 -0.112343 153 0 76
-0.122459 -0.315839 -0.245140 76 153 0
-0.270517 -0.535011 0.055253 76 153 0
-0.268465 -0.363755 0.062911 76 153 0
-0.270249 -0.060564 0.003679 76 153 0
0.268322 -0.179725 0.068874 76 153 0
-0.237209 -0.469747 0.141522 76 153 0
0.009766 -0.651688 -0.068991 76 153 0
-0.132023 -0.478544 0.243907 76 153 0
0.207749 -0.281148 0.185089 76 153 0
-0.061961 0.741880 0.089422 153 0 76
0.092994 0.404207 -0.119751 153 0 76
-0.275021 -0.515509 -0.002053 76 153 0
-0.275020 -0.491999 -0.033441 76 153 0
-0.111636 0.672243 -0.005009 153 0 76
-0.146556 -0.048086 -0.222199 76 153 0
0.201150 -0.660594 -0.142156 76 153 0
-0.074789 0.957326 0.045389 76 0 153
0.251491 -0.617608 0.108682 76 153 0
0.272810 -0.383026 0.052128 76 153 0
0.181912 -0.337969 0.210926 76 153 0
-0.275020 -0.445682 0.012079 76 153 0
0.164244 -0.016702 0.212609 76 153 0
-0.176751 -0.567849 -0.210344 76 153 0
-0.134739 0.356868 0.089009 153 0 76
0.260722 -0.098418 -0.090367 76 153 0
0.038318 -0.078719 0.258989 76 153 0
-0.031409 -0.575804 -0.273605 76 153 0
-0.028554 -0.651723 0.068853 76 153 0
0.031954 0.256128 -0.180280 76 153 0
0.110998 0.514667 0.072301 153 0 76
-0.275020 -0.423945 0.023554 76 153 0
-0.261082 -0.025958 -0.000965 76 153 0
-0.155953 -0.657143 0.137739 76 153 0
-0.036694 -0.335176 0.277592 76 153 0
-0.128698 -0.653510 -0.003442 76 153 0
-0.185507 -0.658890 -0.140550 76 153 0
-0.088590 -0.161593 -0.259315 76 153 0
-0.232288 -0.185346 -0.145756 76 153 0
-0.203501 -0.440369 -0.183594 76 153 0
-0.094630 0.083157 0.218738 76 153 0
0.165933 -0.359829 0.225169 76 153 0
0.209414 -0.584173 0.183425 76 153 0
0.051871 0.708512 -0.094807 153 0 76
-0.189122 0.104223 0.130275 76 153 0
0.133162 0.504946 -0.007250 153 0 76
-0.070316 0.946840 -0.083447 76 0 153
-0.137123 0.119006 -0.176853 76 153 0
-0.135560 -0.614039 -0.230044 76 153 0
0.031354 0.982688 -0.104063 76 0 153
0.175109 -0.656368 0.090411 76 153 0
0.041447 -0.023257 0.263557 76 153 0
-0.264609 -0.329878 0.077302 76 153 0
-0.101367 0.945967 -0.036294 76 0 153
-0.096548 -0.490927 -0.257267 76 153 0
0.070374 -0.214770 -0.264669 76 153 0
-0.092450 -0.663695 -0.246502 76 153 0
-0.261905 -0.119875 -0.042932 76 153 0
0.233114 -0.445371 0.151135 76 153 0
0.198347 -0.117408 -0.180266 76 153 0
0.180060 -0.468119 0.212779 76 153 0
-0.130561 0.092375 0.194570 76 153 0
0.162378 0.063743 -0.177736 76 153 0
0.003444 0.333603 -0.163054 153 0 76
0.228850 -0.297347 0.158521 76 153 0
-0.127685 -0.653659 0.037146 76 153 0
0.080074 0.218557 0.181710 76 153 0
0.001822 0.218265 -0.193123 76 153 0
0.211050 -0.615147 -0.166795 76 153 0
0.115204 0.522195 -0.057850 153 0 76
-0.086151 0.666071 0.074852 153 0 76
-0.121681 0.551287 0.022758 153 0 76
0.068806 0.949208 -0.083562 76 0 153
0.150174 -0.131372 -0.223687 76 153 0
0.023355 -0.650731 0.013061 76 153 0
-0.089397 -0.210752 0.263470 76 153 0
0.171808 -0.358945 -0.216742 76 153 0
0.105045 -0.607079 -0.255085 76 153 0
-0.098260 -0.082267 0.248286 76 153 0
0.031786 0.453803 0.141053 153 0 76
0.031435 0.958306 -0.079720 76 0 153
0.046557 0.799888 -0.089642 153 0 76
0.189856 -0.044901 -0.184669 76 153 0
0.129864 -0.436221 -0.241706 76 153 0
-0.009761 -0.655815 -0.184056 76 153 0
0.050058 0.060457 -0.235750 76 153 0
0.094501 -0.659194 0.221856 76 153 0
-0.117093 -0.246861 -0.248238 76 153 0
-0.008380 0.289822 0.176665 76 153 0
-0.226357 -0.375426 0.160318 76 153 0
-0.079511 0.265270 0.165557 76 153 0
0.200460 -0.628929 0.192104 76 153 0
0.157803 0.201956 -0.123617 76 153 0
-0.164813 0.217127 -0.102325 76 153 0
0.079750 -0.654332 0.129340 76 153 0
-0.090731 0.994485 -0.011606 76 0 153
0.026112 -0.324594 0.277892 76 153 0
-0.002966 0.710027 -0.107271 153 0 76
-0.209550 0.087947 -0.101073 76 153 0
0.080361 0.902408 0.077146 76 0 153
-0.256422 -0.045170 -0.066385 76 153 0
0.251227 -0.520047 -0.115475 76 153 0
0.123402 -0.661216 -0.213583 76 153 0
-0.089111 0.873759 -0.041302 76 0 153
-0.160913 -0.659421 -0.176383 76 153 0
0.276476 -0.492606 -0.016934 76 153 0
-0.166875 -0.154881 -0.219362 76 153 0
-0.033160 -0.263989 0.277891 76 153 0
0.255767 -0.079391 0.041125 76 153 0
0.161723 -0.080650 -0.201553 76 153 0
-0.185000 0.246704 0.031597 76 153 0
-0.165801 0.163393 -0.129975 76 153 0
-0.159713 -0.654769 0.019533 76 153 0
0.276476 -0.432468 0.032770 76 153 0
0.038266 0.614738 -0.108770 153 0 76
-0.011466 -0.650784 0.037795 76 153 0
0.001493 -0.655862 0.189491 76 153 0
-0.176363 -0.566301 0.215020 76 153 0
-0.074077 0.911411 -0.074523 76 0 153
0.214596 -0.144874 0.178001 76 153 0
-0.251086 -0.664573 -0.058530 76 153 0
-0.135012 -0.070978 -0.227711 76 153 0
-0.125873 -0.202282 0.247456 76 153 0
0.221085 -0.003314 -0.140938 76 153 0
-0.127544 0.270282 0.128693 76 153 0
0.069591 0.714304 0.087545 153 0 76
0.060878 0.916342 -0.084772 76 0 153
-0.267489 -0.516942 0.066555 76 153 0
0.050053 0.751253 -0.092005 153 0 76
-0.120873 -0.317330 0.250344 76 153 0
-0.159166 0.208594 0.121342 76 153 0
0.113172 0.671208 0.011894 153 0 76
0.186300 -0.508798 -0.202251 76 153 0
0.027277 -0.359596 0.277892 76 153 0
0.029033 -0.657445 0.213175 76 153 0
-0.025999 0.977242 0.102728 76 0 153
-0.056606 0.850566 0.099397 153 0 76
0.079651 0.444180 -0.118629 153 0 76
-0.057500 0.879485 0.049904 76 0 153
0.061524 -0.486182 -0.267041 76 153 0
0.118098 0.554693 0.039046 153 0 76
0.091975 0.261378 -0.156216 76 153 0
0.181592 -0.550258 -0.206959 76 153 0
0.258440 -0.225988 0.105755 76 153 0
0.276476 -0.392667 0.023037 76 153 0
-0.120710 -0.123645 -0.223988 76 153 0
0.124898 0.515033 0.042969 153 0 76
0.045216 -0.660928 0.245970 76 153 0
-0.260041 -0.493232 -0.090064 76 153 0
0.049378 0.980049 -0.092330 76 0 153
0.157757 -0.569206 0.229890 76 153 0
0.019164 0.890813 -0.107265 76 0 153
0.006161 -0.088583 0.272935 76 153 0
-0.155445 -0.035501 -0.200638 76 153 0
-0.184564 -0.656103 0.049473 76 153 0
0.169521 -0.655401 0.052215 76 153 0
-0.032850 0.088331 -0.230690 76 153 0
-0.089209 -0.232884 0.263520 76 153 0
-0.065655 0.098765 -0.218426 76 153 0
0.163073 0.095269 0.166991 76 153 0
-0.139260 0.309471 0.099303 153 0 76
0.181537 0.196881 -0.087619 76 153 0
0.174904 -0.657266 -0.113174 76 153 0
-0.060663 0.995590 0.040513 76 0 153
0.028646 0.879485 -0.006672 76 0 153
0.263984 -0.153301 -0.080295 76 153 0
-0.192160 0.157603 -0.089473 76 153 0
0.089006 0.995590 0.002807 76 0 153
0.264555 -0.066374 0.058717 76 153 0
-0.075611 0.981077 0.014080 76 0 153
0.085410 -0.546415 -0.260641 76 153 0
-0.202853 -0.658838 -0.108981 76 153 0
0.046234 0.531962 -0.117421 153 0 76
-0.220067 -0.196189 0.171210 76 153 0
-0.099687 -0.442483 0.260713 76 153 0
-0.259246 -0.306148 0.097314 76 153 0
0.062039 -0.657292 -0.197691 76 153 0
0.153319 -0.657830 0.156272 76 153 0
-0.005744 -0.652564 0.105762 76 153 0
-0.145327 -0.654533 -0.050203 76 153 0
0.052145 -0.587615 0.273824 76 153 0
-0.038604 -0.653605 0.128017 76 153 0
-0.182468 -0.269199 0.208915 76 153 0
0.163771 -0.658200 -0.149312 76 153 0
0.270349 -0.643236 -0.028177 76 153 0
0.264309 -0.371107 0.083854 76 153 0
-0.129150 -0.542200 -0.241278 76 153 0
-0.158570 0.283469 0.078958 76 153 0
0.077020 0.984069 -0.076714 76 0 153
0.003480 0.879485 0.083416 76 0 153
-0.262664 -0.596794 0.084143 76 153 0
-0.048307 0.655686 -0.100784 153 0 76
0.214605 -0.047550 0.166798 76 153 0
0.135038 0.260392 -0.122422 76 153 0
0.115206 -0.664487 -0.230311 76 153 0
-0.275020 -0.260713 -0.019793 76 153 0
-0.233112 -0.512765 0.148618 76 153 0
0.093790 0.734396 0.055982 153 0 76
0.185348 0.234020 -0.045648 76 153 0
0.069605 0.893998 0.034780 76 0 153
0.269442 -0.614318 -0.007835 76 153 0
0.071497 0.411654 -0.130518 153 0 76
0.118839 0.598574 -0.001988 153 0 76
0.206241 0.142860 -0.069790 76 153 0
0.211708 -0.658310 0.080283 76 153 0
-0.049853 -0.362931 0.274066 76 153 0
-0.210786 -0.264887 -0.176308 76 153 0
-0.051069 -0.145735 0.273568 76 153 0
0.030343 0.981077 0.016301 76 0 153
-0.149620 -0.576192 0.233748 76 153 0
-0.140398 -0.194954 -0.234782 76 153 0
-0.205584 -0.662257 -0.145021 76 153 0
0.079880 0.595074 0.090413 153 0 76
-0.112426 -0.354892 -0.250933 76 153 0
-0.193752 0.220980 0.006885 76 153 0
0.041830 -0.229617 0.276605 76 153 0
0.228860 -0.570856 0.158503 76 153 0
0.107341 0.981323 0.026193 76 0 153
0.100362 0.835372 0.004939 153 0 76
0.063931 -0.651729 -0.033669 76 153 0
-0.111915 -0.658574 0.245006 76 153 0
0.173454 -0.629104 -0.214845 76 153 0
0.262666 -0.595079 0.089636 76 153 0
-0.189091 0.166800 0.093745 76 153 0
-0.154255 -0.449683 -0.226783 76 153 0
-0.042398 0.572100 -0.110718 153 0 76
-0.227736 -0.538152 0.157930 76 153 0
-0.123339 -0.211462 -0.244631 76 153 0
-0.078771 0.164922 -0.194721 76 153 0
0.197487 -0.091597 0.191177 76 153 0
-0.221242 -0.391010 0.169177 76 153 0
0.241318 -0.147284 -0.132322 76 153 0
-0.212735 0.149894 -0.032245 76 153 0
-0.111438 0.653755 0.023249 153 0 76
0.118058 0.123836 -0.187203 76 153 0
-0.209532 0.097208 0.099437 76 153 0
-0.147786 -0.654750 0.064847 76 153 0
-0.117796 -0.170265 -0.247793 76 153 0
-0.031177 0.607711 0.115135 153 0 76
0.004532 0.889291 0.111787 76 0 153
-0.163400 -0.288251 -0.221502 76 153 0
-0.087544 0.981077 0.028432 76 0 153
-0.184904 0.146358 0.112849 76 153 0
-0.192715 0.196731 -0.054495 76 153 0
-0.245918 -0.352897 0.126437 76 153 0
-0.030912 0.108129 0.228906 76 153 0
-0.214016 -0.054649 -0.165692 76 153 0
0.124538 -0.284636 0.249068 76 153 0
0.241869 -0.250232 -0.131681 76 153 0
0.257839 -0.188779 0.107997 76 153 0
-0.147229 0.143793 0.160871 76 153 0
0.072861 0.880351 0.051249 76 0 153
