ply
format ascii 1.0
element vertex 1241
property float x
property float y
property float z
property uchar red
property uchar green
property uchar blue
end_header
0.039833 0.043811 0.232890 0 127 127
0.044966 -0.198122 0.271712 0 127 127
-0.136592 0.225932 0.154783 0 127 127
-0.096314 0.742230 -0.059242 0 127 127
0.248172 0.028287 0.030902 0 127 127
-0.116584 0.049511 -0.227445 0 127 127
-0.014784 -0.440299 0.315061 0 127 127
0.110733 0.862409 -0.033689 76 153 0
0.150556 0.478639 -0.081267 0 127 127
-0.056679 0.754885 0.104134 0 127 127
0.001297 -0.531428 0.142386 0 127 127
-0.298314 -0.237878 -0.026383 0 127 127
0.019885 -0.350186 -0.338925 0 127 127
0.113294 0.115627 -0.215886 0 127 127
0.076152 -0.017260 -0.260726 0 127 127
-0.093793 0.906883 -0.054165 76 153 0
-0.213518 0.050573 -0.130642 0 127 127
0.001346 0.047602 -0.258557 0 127 127
-0.015311 0.501911 0.160421 0 127 127
0.046347 0.498450 -0.159604 0 127 127
0.347220 -0.491494 -0.008499 0 127 127
0.219626 -0.046013 -0.161310 0 127 127
0.137691 0.417279 0.114044 0 127 127
0.071398 -0.117795 -0.283767 0 127 127
-0.072073 -0.475211 0.312939 0 127 127
-0.203840 0.110674 -0.123516 0 127 127
-0.338420 -0.513477 -0.116463 0 127 127
0.084973 0.914471 0.085603 76 153 0
-0.196328 0.284580 0.032490 0 127 127
-0.130068 -0.510110 0.299877 0 127 127
-0.020782 0.685556 -0.123386 0 127 127
0.276430 -0.125737 0.027202 0 127 127
-0.005064 0.822284 0.118133 76 153 0
0.165377 0.498493 -0.018557 0 127 127
0.264366 -0.208488 -0.147913 0 127 127
0.232431 -0.300276 0.189258 0 127 127
-0.247364 0.007774 0.033690 0 127 127
-0.207568 -0.424590 0.238034 0 127 127
0.263390 -0.297297 -0.184741 0 127 127
-0.164878 0.466257 -0.019352 0 127 127
-0.186214 0.340411 0.030824 0 127 127
0.186777 -0.290794 0.227894 0 127 127
-0.043411 0.399035 0.173473 0 127 127
0.267802 -0.235476 -0.153054 0 127 127
0.029617 -0.531428 0.165678 0 127 127
0.172702 -0.425433 -0.309256 0 127 127
-0.042891 0.725424 -0.107942 0 127 127
-0.334449 -0.486577 0.066219 0 127 127
-0.100795 -0.531428 0.180435 0 127 127
0.251895 -0.311481 -0.204463 0 127 127
0.093251 0.804017 -0.065054 76 153 0
0.085674 0.597013 0.120726 0 127 127
0.263610 -0.033696 -0.000271 0 127 127
-0.079642 0.684094 -0.095407 0 127 127
-0.242815 0.006013 0.059078 0 127 127
0.328598 -0.531428 0.094066 0 127 127
0.085812 -0.531428 -0.359147 0 127 127
0.049318 -0.264378 -0.317132 0 127 127
-0.260561 -0.041688 0.001590 0 127 127
0.205158 -0.113520 -0.202156 0 127 127
-0.114051 0.458541 0.122814 0 127 127
0.213782 -0.421603 -0.276422 0 127 127
0.207806 -0.510503 0.257445 0 127 127
0.207906 0.024585 0.131530 0 127 127
0.325592 -0.531428 -0.040593 0 127 127
-0.050068 -0.189045 -0.301130 0 127 127
-0.258829 -0.531428 -0.121516 0 127 127
-0.205790 0.010989 0.132280 0 127 127
0.302766 -0.295975 0.058850 0 127 127
0.068332 0.117823 -0.234245 0 127 127
0.256511 -0.202482 -0.163207 0 127 127
-0.070950 0.659109 -0.108462 0 127 127
-0.100944 0.825337 0.048220 76 153 0
0.063976 0.524302 -0.146614 0 127 127
-0.295761 -0.531428 0.085523 0 127 127
0.194031 0.283435 0.061973 0 127 127
0.084831 -0.531428 -0.242760 0 127 127
-0.211456 -0.523571 0.256062 0 127 127
-0.255261 -0.454670 0.199939 0 127 127
-0.337472 -0.531428 -0.026587 0 127 127
-0.101731 0.726450 0.065280 0 127 127
-0.102775 0.240190 -0.190841 0 127 127
-0.152785 -0.083751 -0.235274 0 127 127
-0.106817 0.872112 -0.023297 76 153 0
0.310644 -0.297320 -0.038206 0 127 127
0.051819 0.457362 0.162504 0 127 127
0.120661 0.562538 0.096039 0 127 127
0.265114 -0.350362 -0.199594 0 127 127
0.037748 0.311437 -0.199533 0 127 127
0.131703 0.065757 -0.216955 0 127 127
-0.028237 -0.501083 -0.368586 0 127 127
-0.127322 -0.022468 0.213966 0 127 127
0.305396 -0.504901 0.149390 0 127 127
-0.288086 -0.342682 0.112151 0 127 127
0.302048 -0.438221 -0.171011 0 127 127
-0.271339 -0.531428 -0.083754 0 127 127
0.290231 -0.488211 -0.210987 0 127 127
-0.136634 0.600614 0.039601 0 127 127
0.124745 -0.531428 -0.086894 0 127 127
0.038048 0.053202 -0.252942 0 127 127
-0.238999 0.054971 0.030855 0 127 127
-0.070682 0.996658 0.007908 76 153 0
-0.047670 -0.531428 0.119344 0 127 127
-0.244738 -0.392140 -0.236409 0 127 127
0.344640 -0.484593 -0.044318 0 127 127
0.167337 -0.270565 0.238459 0 127 127
-0.100932 -0.135296 -0.274772 0 127 127
-0.234987 -0.448652 0.221880 0 127 127
0.203299 0.281219 -0.037687 0 127 127
0.134734 0.384756 -0.133966 0 127 127
-0.079214 -0.176065 -0.292655 0 127 127
0.075591 -0.142749 0.258266 0 127 127
0.021471 0.038038 0.236152 0 127 127
-0.040018 0.604995 -0.135836 0 127 127
-0.040645 -0.266131 0.282951 0 127 127
-0.234643 -0.237196 -0.199115 0 127 127
0.171547 -0.128348 -0.235114 0 127 127
0.074736 0.307114 0.179557 0 127 127
-0.032758 0.385164 -0.184209 0 127 127
-0.071857 0.906102 0.089751 76 153 0
0.201036 -0.531428 -0.069236 0 127 127
0.171619 -0.531428 0.065398 0 127 127
-0.138014 0.610060 -0.014969 0 127 127
0.021193 0.448543 -0.173397 0 127 127
0.179386 0.430974 0.002729 0 127 127
-0.245335 -0.473542 -0.262067 0 127 127
0.101755 0.890730 0.063732 76 153 0
-0.052073 0.299686 0.187985 0 127 127
-0.063019 0.223462 0.197046 0 127 127
-0.085513 0.345604 -0.174593 0 127 127
0.295555 -0.218091 -0.041204 0 127 127
0.164330 0.220811 -0.148030 0 127 127
0.117426 0.861450 -0.002068 76 153 0
-0.016373 0.137914 -0.237593 0 127 127
-0.196342 -0.166011 0.191766 0 127 127
-0.256989 -0.016864 -0.019973 0 127 127
-0.220793 -0.465374 -0.280705 0 127 127
0.147506 0.078150 0.181275 0 127 127
-0.274812 -0.122477 0.006987 0 127 127
-0.142212 0.530054 0.059075 0 127 127
0.180719 0.269802 0.098988 0 127 127
-0.339355 -0.500146 -0.092133 0 127 127
0.206360 0.282266 0.001623 0 127 127
-0.211240 -0.531428 0.210952 0 127 127
0.048984 -0.531428 -0.338717 0 127 127
0.014650 0.931702 -0.108139 76 153 0
-0.058789 -0.275902 -0.318037 0 127 127
0.160002 0.409557 0.086608 0 127 127
-0.145571 0.567733 0.019951 0 127 127
-0.289251 -0.531428 -0.087750 0 127 127
-0.069001 -0.531428 -0.352745 0 127 127
0.312848 -0.319250 0.015869 0 127 127
-0.084559 0.932092 0.075960 76 153 0
-0.267093 -0.117040 0.057461 0 127 127
-0.079702 0.963890 -0.072529 76 153 0
-0.009091 -0.531428 -0.040604 0 127 127
0.097959 0.563130 0.118362 0 127 127
0.108345 0.013377 -0.240480 0 127 127
-0.269198 -0.384741 0.161628 0 127 127
0.294417 -0.531428 -0.200688 0 127 127
-0.175122 0.058771 -0.179756 0 127 127
0.121816 0.700625 -0.040316 0 127 127
-0.055067 0.714441 -0.105337 0 127 127
-0.131372 -0.466228 0.291495 0 127 127
-0.309733 -0.323818 -0.062738 0 127 127
0.043190 -0.049733 -0.273544 0 127 127
-0.114810 -0.449872 -0.338711 0 127 127
-0.057785 0.901087 0.100550 76 153 0
-0.245508 -0.059708 0.083391 0 127 127
-0.173127 0.168784 0.130300 0 127 127
-0.161523 0.414708 -0.071670 0 127 127
0.179114 -0.531428 -0.015954 0 127 127
-0.271279 -0.531428 0.188920 0 127 127
0.118761 0.729428 -0.033376 0 127 127
0.091596 0.275110 -0.189892 0 127 127
-0.085327 -0.456157 -0.352052 0 127 127
0.204859 -0.531428 -0.281517 0 127 127
0.117027 0.261039 -0.179011 0 127 127
0.279254 -0.119633 -0.025542 0 127 127
-0.047641 -0.531428 0.091247 0 127 127
0.017158 0.207311 0.209080 0 127 127
0.202928 0.217921 0.070133 0 127 127
-0.111747 0.732202 0.038679 0 127 127
-0.109134 0.938944 0.015467 76 153 0
0.197621 0.180920 -0.115619 0 127 127
0.023006 -0.530968 -0.375917 0 127 127
-0.064047 0.784297 -0.085984 0 127 127
0.006375 0.522173 0.159074 0 127 127
0.100050 -0.475748 0.306805 0 127 127
-0.335388 -0.459345 0.020347 0 127 127
0.158997 0.305281 -0.127826 0 127 127
-0.281607 -0.300431 -0.144743 0 127 127
0.096251 -0.448868 -0.347342 0 127 127
0.216567 -0.457910 0.239900 0 127 127
-0.303867 -0.282588 0.011244 0 127 127
-0.020139 -0.421201 -0.353046 0 127 127
0.259165 -0.239463 -0.171644 0 127 127
0.143907 -0.068253 0.214334 0 127 127
0.306164 -0.297375 -0.073755 0 127 127
0.018584 0.003328 -0.265932 0 127 127
0.308058 -0.324886 -0.099012 0 127 127
-0.062950 0.631778 -0.120419 0 127 127
-0.082909 -0.531428 -0.237796 0 127 127
0.224950 -0.092336 -0.169245 0 127 127
0.213289 -0.138107 -0.199379 0 127 127
-0.285955 -0.488290 0.169089 0 127 127
0.092918 -0.047318 0.234424 0 127 127
0.187434 0.170212 0.117867 0 127 127
-0.248983 -0.531428 -0.220125 0 127 127
-0.147272 -0.531428 -0.147701 0 127 127
0.265390 -0.047434 -0.029184 0 127 127
0.082398 0.430710 -0.159498 0 127 127
-0.028521 0.028920 -0.258658 0 127 127
0.296888 -0.426737 0.134699 0 127 127
0.078830 -0.221835 -0.304283 0 127 127
-0.156095 0.296322 -0.127157 0 127 127
0.340827 -0.531428 -0.016456 0 127 127
0.262816 -0.066571 0.048764 0 127 127
0.265679 -0.190139 -0.135476 0 127 127
0.149478 -0.250618 -0.281315 0 127 127
0.154097 0.565148 0.010962 0 127 127
0.158395 0.544671 -0.005961 0 127 127
0.286120 -0.516638 -0.225577 0 127 127
0.196944 -0.470865 -0.301927 0 127 127
0.204708 0.236694 -0.070406 0 127 127
0.207279 -0.048521 0.152444 0 127 127
0.275602 -0.512100 0.191863 0 127 127
0.042474 0.767154 0.111820 0 127 127
-0.149514 -0.414080 0.274557 0 127 127
-0.268043 -0.385218 -0.204117 0 127 127
0.178322 0.414857 -0.038531 0 127 127
0.091413 0.572406 -0.120211 0 127 127
-0.117754 0.684809 -0.040060 0 127 127
0.225685 -0.531428 -0.047053 0 127 127
0.119833 -0.084613 0.229995 0 127 127
-0.125841 0.601690 0.065306 0 127 127
-0.107739 0.845657 0.026062 76 153 0
0.115738 -0.531428 -0.341764 0 127 127
-0.092323 0.920074 0.065841 76 153 0
0.079457 -0.531428 -0.083130 0 127 127
-0.124269 -0.379347 -0.319247 0 127 127
-0.237010 -0.093115 -0.146834 0 127 127
0.043357 0.312205 0.188610 0 127 127
0.103948 -0.277353 -0.306342 0 127 127
0.269781 -0.267363 -0.164223 0 127 127
0.084461 0.947301 -0.076315 76 153 0
0.031766 -0.476147 -0.363370 0 127 127
-0.020506 0.534589 0.154373 0 127 127
-0.211889 -0.340362 -0.255672 0 127 127
0.004497 0.123538 0.224347 0 127 127
-0.181383 -0.397136 0.252509 0 127 127
0.163578 0.482558 0.045205 0 127 127
-0.116627 -0.531428 -0.329632 0 127 127
-0.104277 0.364634 0.150326 0 127 127
-0.278189 -0.286066 0.109774 0 127 127
-0.109288 0.081630 0.202961 0 127 127
0.151427 -0.149206 0.225396 0 127 127
-0.009487 0.615342 -0.139458 0 127 127
0.025072 0.395442 0.177388 0 127 127
0.163221 -0.188518 -0.256770 0 127 127
-0.076685 -0.510554 0.318104 0 127 127
0.311978 -0.480107 -0.167722 0 127 127
0.106084 0.777208 -0.044914 76 153 0
-0.026325 0.168657 -0.229962 0 127 127
0.331995 -0.405086 -0.027565 0 127 127
0.131121 0.481482 -0.107621 0 127 127
0.024967 0.569214 -0.147908 0 127 127
0.014237 -0.531428 -0.123920 0 127 127
-0.179710 0.379378 -0.032319 0 127 127
0.231926 0.086203 0.059918 0 127 127
-0.158758 -0.168887 -0.252391 0 127 127
-0.031355 0.229304 0.202964 0 127 127
-0.109262 0.911364 -0.004734 76 153 0
-0.073900 -0.531428 0.077371 0 127 127
0.228315 -0.531428 -0.241652 0 127 127
-0.162147 0.135941 -0.171427 0 127 127
-0.179980 0.374687 0.029986 0 127 127
0.096472 -0.231337 0.265313 0 127 127
-0.337177 -0.459326 -0.051173 0 127 127
-0.221911 0.101116 0.065571 0 127 127
-0.003445 0.558619 0.152676 0 127 127
-0.009448 0.466571 0.166993 0 127 127
0.212209 0.230735 -0.041349 0 127 127
0.091878 0.056303 -0.237951 0 127 127
-0.184942 0.124222 -0.145845 0 127 127
-0.089602 0.314167 0.169719 0 127 127
-0.083109 -0.399931 -0.340597 0 127 127
-0.324712 -0.425783 -0.095435 0 127 127
0.067375 0.249554 0.192676 0 127 127
-0.097002 -0.215017 0.261091 0 127 127
-0.036387 -0.531428 -0.250562 0 127 127
0.261637 -0.049426 -0.061822 0 127 127
-0.166556 -0.531428 0.100259 0 127 127
-0.017471 0.082858 -0.248870 0 127 127
-0.034951 0.693119 -0.118402 0 127 127
-0.095328 -0.260335 -0.304725 0 127 127
-0.081830 0.666987 -0.098101 0 127 127
-0.143402 0.304312 -0.140926 0 127 127
-0.043013 0.996658 -0.054212 76 153 0
0.247252 -0.464654 -0.260010 0 127 127
0.302266 -0.531428 -0.157433 0 127 127
-0.106672 0.781410 0.034166 76 153 0
0.008500 -0.531428 0.191758 0 127 127
0.270644 -0.531428 -0.014874 0 127 127
0.095691 -0.403753 -0.337644 0 127 127
-0.043329 0.157610 0.213082 0 127 127
-0.118214 0.105682 0.194518 0 127 127
0.177285 -0.457432 0.269617 0 127 127
-0.159823 -0.065994 0.198829 0 127 127
-0.317645 -0.362914 0.019707 0 127 127
0.270701 -0.081902 -0.037795 0 127 127
-0.180770 0.086157 -0.163582 0 127 127
-0.330312 -0.432632 -0.064101 0 127 127
-0.000807 0.996658 0.096198 76 153 0
-0.147547 0.128507 -0.185271 0 127 127
-0.017813 0.773078 -0.106694 0 127 127
-0.035064 0.842515 0.111541 76 153 0
0.056671 0.295147 -0.200059 0 127 127
-0.340693 -0.514722 0.059386 0 127 127
-0.264408 -0.196938 -0.133742 0 127 127
0.006283 0.366064 0.184554 0 127 127
0.225511 0.173212 0.005592 0 127 127
-0.245262 0.040798 -0.025451 0 127 127
-0.326726 -0.402147 0.005228 0 127 127
0.120515 0.639756 0.074806 0 127 127
0.252462 0.032425 -0.006200 0 127 127
0.275762 -0.257750 -0.144740 0 127 127
0.203867 -0.531428 0.089832 0 127 127
-0.148818 -0.531428 -0.310538 0 127 127
0.244626 -0.408878 0.203406 0 127 127
0.116329 0.729447 0.047328 0 127 127
-0.183999 -0.531428 0.052754 0 127 127
-0.157585 0.078749 -0.190302 0 127 127
-0.224602 -0.410155 -0.263772 0 127 127
0.145060 0.585952 -0.041076 0 127 127
0.209592 -0.187439 0.187668 0 127 127
0.175347 -0.164849 -0.241385 0 127 127
0.211082 0.044917 -0.143224 0 127 127
0.274335 -0.205710 0.089578 0 127 127
0.067062 0.812427 0.099426 76 153 0
0.079568 0.914937 -0.080069 76 153 0
-0.046949 -0.531428 -0.199520 0 127 127
0.107998 0.897498 -0.040294 76 153 0
0.310221 -0.284245 -0.022334 0 127 127
0.175288 -0.089895 -0.222500 0 127 127
-0.319350 -0.401709 0.062885 0 127 127
0.208962 -0.328440 0.218854 0 127 127
0.071209 -0.531428 -0.121132 0 127 127
0.122598 -0.531428 0.259717 0 127 127
-0.188547 -0.497172 -0.313267 0 127 127
-0.280504 -0.331402 -0.162902 0 127 127
-0.234533 -0.054054 -0.133135 0 127 127
-0.262540 -0.531428 -0.250270 0 127 127
0.328146 -0.459715 0.075079 0 127 127
-0.185020 0.000916 -0.185779 0 127 127
0.064785 0.191760 0.203889 0 127 127
0.120934 -0.037584 0.221282 0 127 127
0.268674 -0.136389 -0.101125 0 127 127
-0.089948 0.794047 -0.059176 76 153 0
0.151853 0.174819 -0.173816 0 127 127
0.061813 -0.320686 -0.327075 0 127 127
0.232777 -0.225121 0.168143 0 127 127
-0.065731 0.492129 -0.150264 0 127 127
-0.145792 0.140373 0.165837 0 127 127
0.271177 -0.520054 -0.246366 0 127 127
-0.201030 0.179638 -0.095608 0 127 127
0.169848 -0.222406 0.226577 0 127 127
-0.275668 -0.342906 -0.180175 0 127 127
-0.111665 -0.531428 -0.178379 0 127 127
-0.210797 -0.112125 0.160804 0 127 127
-0.151783 -0.531428 0.245179 0 127 127
-0.280023 -0.168371 0.032884 0 127 127
-0.319829 -0.361791 -0.041940 0 127 127
-0.068698 -0.082277 -0.276195 0 127 127
-0.305514 -0.277843 -0.008735 0 127 127
0.092402 0.310978 -0.181656 0 127 127
0.066641 -0.490835 -0.361632 0 127 127
-0.098119 -0.287659 0.273591 0 127 127
0.213677 0.130916 -0.101579 0 127 127
0.000124 -0.531428 -0.351522 0 127 127
0.027116 0.420678 -0.178379 0 127 127
-0.126999 0.373247 -0.138509 0 127 127
0.108582 0.987347 0.048643 76 153 0
0.247759 -0.067419 0.090997 0 127 127
-0.241962 -0.512238 -0.276556 0 127 127
-0.039164 0.635311 0.133471 0 127 127
0.323209 -0.391188 0.034847 0 127 127
0.056668 -0.175603 -0.297750 0 127 127
-0.244575 -0.531428 0.033248 0 127 127
0.280668 -0.470261 -0.217792 0 127 127
-0.189749 -0.027092 0.164260 0 127 127
0.098727 0.462252 0.138733 0 127 127
0.156983 -0.046732 -0.225796 0 127 127
-0.148180 -0.531428 -0.226256 0 127 127
-0.349903 -0.510727 -0.029882 0 127 127
0.187392 -0.527201 -0.323566 0 127 127
-0.082782 0.976683 0.078275 76 153 0
-0.260797 -0.035016 -0.017358 0 127 127
-0.247628 -0.531428 -0.089012 0 127 127
-0.312964 -0.326858 -0.043392 0 127 127
0.192827 0.287529 -0.073978 0 127 127
0.034825 -0.531428 0.035527 0 127 127
-0.171739 0.112883 -0.166548 0 127 127
-0.063588 -0.531428 -0.062376 0 127 127
-0.111363 0.493384 0.117491 0 127 127
-0.124491 0.691130 -0.000176 0 127 127
0.000381 0.791912 -0.109090 76 153 0
-0.106021 0.074911 -0.226183 0 127 127
-0.160211 0.387236 -0.088572 0 127 127
0.320628 -0.410646 -0.111623 0 127 127
-0.065970 -0.026548 -0.264978 0 127 127
0.113617 -0.157911 -0.275978 0 127 127
-0.071557 -0.531428 0.165976 0 127 127
-0.006724 0.742502 0.122065 0 127 127
-0.334438 -0.430908 -0.031581 0 127 127
-0.198027 -0.452965 0.251468 0 127 127
0.110486 0.954491 0.044047 76 153 0
0.295953 -0.531428 0.146883 0 127 127
0.308287 -0.384532 0.088724 0 127 127
-0.253332 -0.303026 -0.196396 0 127 127
-0.111137 0.326167 -0.162641 0 127 127
-0.105038 -0.433223 -0.339015 0 127 127
-0.214982 -0.221864 0.186594 0 127 127
0.100577 -0.531428 0.170664 0 127 127
-0.264135 -0.095984 -0.078221 0 127 127
0.132329 0.633544 -0.048278 0 127 127
0.209079 0.157379 -0.099550 0 127 127
-0.277427 -0.531428 -0.187836 0 127 127
-0.204913 -0.155841 -0.211028 0 127 127
-0.208037 -0.531428 -0.172921 0 127 127
0.004492 -0.007536 -0.270054 0 127 127
-0.135002 -0.531428 0.220913 0 127 127
0.260414 -0.372998 0.173185 0 127 127
0.093652 0.064948 0.214396 0 127 127
0.097419 0.087400 -0.228774 0 127 127
-0.218228 -0.531428 0.115289 0 127 127
-0.267828 -0.531428 -0.017586 0 127 127
-0.009905 -0.155104 -0.299165 0 127 127
-0.083218 0.884674 -0.067947 76 153 0
-0.054632 -0.451698 -0.355012 0 127 127
0.112913 0.444326 -0.135949 0 127 127
-0.072625 0.122219 0.211125 0 127 127
-0.118932 0.701771 -0.026888 0 127 127
-0.085669 0.573231 -0.119115 0 127 127
-0.339076 -0.531428 -0.104729 0 127 127
0.230644 -0.531428 -0.178812 0 127 127
0.319245 -0.389475 0.061533 0 127 127
0.013270 0.996658 -0.071472 76 153 0
0.110560 0.134288 -0.212926 0 127 127
-0.263158 -0.079255 -0.062047 0 127 127
0.072419 0.775841 -0.085555 76 153 0
-0.232306 -0.025108 0.099467 0 127 127
0.188164 0.382757 0.002127 0 127 127
-0.201577 -0.394935 0.236376 0 127 127
-0.289086 -0.216868 0.032102 0 127 127
-0.250724 -0.307981 0.164070 0 127 127
-0.067949 0.984318 -0.082990 76 153 0
0.243097 -0.288307 -0.208576 0 127 127
0.077383 -0.450839 -0.351881 0 127 127
-0.166560 0.008225 0.177824 0 127 127
0.018390 -0.531428 0.292789 0 127 127
0.036534 0.996658 0.074309 76 153 0
-0.048057 -0.091246 0.253252 0 127 127
0.079706 0.035733 0.225221 0 127 127
-0.224106 -0.531428 -0.180344 0 127 127
-0.077640 0.552575 0.130931 0 127 127
-0.035467 -0.154378 0.265331 0 127 127
-0.201336 0.096058 0.113880 0 127 127
0.138341 0.113746 -0.199723 0 127 127
-0.190399 0.195867 -0.112754 0 127 127
0.087568 -0.122425 0.249807 0 127 127
0.003488 0.262121 0.201865 0 127 127
0.031325 0.470432 0.164324 0 127 127
0.256389 -0.268784 0.149712 0 127 127
-0.041750 0.996658 -0.088270 76 153 0
0.228990 -0.135646 0.148416 0 127 127
0.244076 -0.139499 0.129977 0 127 127
0.146213 0.282135 0.139884 0 127 127
0.333193 -0.443086 0.030230 0 127 127
0.163488 0.266079 -0.134560 0 127 127
-0.000223 -0.531428 0.226395 0 127 127
0.011582 -0.531428 -0.071932 0 127 127
-0.083867 0.097128 0.210881 0 127 127
-0.144054 0.183075 0.158107 0 127 127
-0.207640 -0.190742 -0.218844 0 127 127
-0.231920 0.049267 0.065432 0 127 127
0.110518 0.615478 -0.091451 0 127 127
-0.099862 0.796721 0.050832 76 153 0
-0.169291 0.423807 -0.046480 0 127 127
0.167658 0.056702 0.170400 0 127 127
0.204986 0.277909 0.017847 0 127 127
-0.031144 0.064202 0.230072 0 127 127
-0.223432 -0.511508 0.244208 0 127 127
0.252566 -0.003793 0.041016 0 127 127
0.012421 -0.432058 0.313989 0 127 127
0.191516 -0.239721 0.213717 0 127 127
0.242088 -0.032078 0.088695 0 127 127
-0.109776 0.198817 -0.196059 0 127 127
-0.325332 -0.378474 -0.018376 0 127 127
0.196807 -0.043223 -0.190472 0 127 127
0.113147 -0.531428 -0.076196 0 127 127
-0.032044 0.712672 0.122622 0 127 127
0.266939 -0.531428 -0.114691 0 127 127
0.278799 -0.237648 0.093231 0 127 127
0.139716 0.483156 0.093230 0 127 127
0.172379 -0.531428 0.189797 0 127 127
0.106058 -0.531428 -0.241927 0 127 127
0.067736 -0.248081 0.276987 0 127 127
-0.082362 0.226292 -0.202347 0 127 127
-0.285469 -0.210963 -0.082653 0 127 127
0.275260 -0.127518 -0.068759 0 127 127
-0.152047 0.236791 -0.151704 0 127 127
0.064533 -0.531428 -0.078049 0 127 127
-0.144403 0.426583 0.094602 0 127 127
-0.293623 -0.236291 -0.058414 0 127 127
0.119610 0.350368 0.146060 0 127 127
-0.068641 0.431456 -0.162526 0 127 127
-0.280716 -0.283022 -0.138129 0 127 127
0.084225 -0.531428 -0.172387 0 127 127
-0.093937 0.491774 -0.133580 0 127 127
-0.031696 0.457546 -0.169313 0 127 127
-0.126889 0.022120 0.205573 0 127 127
0.059304 -0.200836 -0.302612 0 127 127
-0.226500 -0.531428 -0.052002 0 127 127
-0.075300 0.197928 0.196485 0 127 127
-0.246979 -0.337918 0.177545 0 127 127
-0.112266 -0.189388 -0.282115 0 127 127
0.131171 -0.531428 0.287963 0 127 127
-0.286251 -0.529640 0.180495 0 127 127
0.095138 0.702825 -0.083452 0 127 127
-0.018911 -0.289944 0.289835 0 127 127
-0.073500 0.063183 -0.242052 0 127 127
-0.220942 0.016916 0.107477 0 127 127
0.038344 0.172094 -0.228293 0 127 127
-0.068339 -0.513133 -0.366019 0 127 127
-0.096563 0.632159 -0.094867 0 127 127
0.025383 0.080066 -0.249117 0 127 127
-0.184875 -0.290268 -0.263436 0 127 127
-0.177261 -0.531428 -0.174957 0 127 127
0.122607 -0.248805 0.257718 0 127 127
-0.213594 0.087826 -0.111773 0 127 127
0.013801 0.482407 -0.167357 0 127 127
-0.212981 -0.222143 -0.222155 0 127 127
0.230333 0.017005 0.094725 0 127 127
-0.049849 0.996658 -0.036835 76 153 0
-0.109821 0.536921 0.108499 0 127 127
-0.311854 -0.482833 -0.164286 0 127 127
-0.035185 -0.412836 0.307762 0 127 127
-0.124954 -0.105025 -0.258272 0 127 127
0.242328 -0.235309 -0.192487 0 127 127
0.205272 0.086931 0.117727 0 127 127
-0.070485 0.996658 -0.060975 76 153 0
0.163256 0.204536 -0.154654 0 127 127
-0.299729 -0.458942 -0.181145 0 127 127
0.017622 -0.411740 0.310017 0 127 127
-0.004777 -0.531428 -0.170739 0 127 127
-0.138738 -0.531428 -0.202838 0 127 127
-0.102638 0.439675 0.135678 0 127 127
-0.183978 0.230393 -0.110711 0 127 127
0.180327 0.319042 0.078707 0 127 127
0.155277 -0.420335 -0.316246 0 127 127
-0.257856 -0.090229 0.067487 0 127 127
-0.239546 -0.218058 0.153145 0 127 127
-0.147335 -0.531428 -0.037741 0 127 127
-0.299641 -0.366548 0.095060 0 127 127
-0.298929 -0.269151 -0.065458 0 127 127
0.088614 0.597094 -0.116139 0 127 127
-0.126578 0.052707 0.199329 0 127 127
-0.138178 -0.531428 -0.239219 0 127 127
0.080620 0.717806 0.099438 0 127 127
0.233394 0.104533 0.038495 0 127 127
0.132948 -0.515227 -0.346526 0 127 127
-0.026488 0.857532 0.115093 76 153 0
-0.143139 0.012322 0.195120 0 127 127
-0.092392 -0.375993 -0.331513 0 127 127
-0.280251 -0.457284 -0.211778 0 127 127
-0.207856 -0.531428 -0.102821 0 127 127
-0.228365 -0.480119 0.233707 0 127 127
0.333910 -0.531428 0.041754 0 127 127
-0.026766 -0.531428 0.204855 0 127 127
0.211565 -0.531428 0.142125 0 127 127
0.292953 -0.263593 0.071155 0 127 127
0.041935 0.551301 0.149705 0 127 127
0.219799 -0.156219 -0.196646 0 127 127
-0.098857 0.751953 0.060620 0 127 127
0.258880 -0.531428 -0.242355 0 127 127
0.175734 0.054378 -0.185713 0 127 127
-0.159911 0.449388 0.053689 0 127 127
-0.102125 0.692173 0.074509 0 127 127
-0.269651 -0.295312 0.134989 0 127 127
0.062529 0.096454 0.221363 0 127 127
-0.223737 -0.419654 0.224442 0 127 127
-0.179003 -0.531428 0.231170 0 127 127
-0.126461 0.617367 -0.053323 0 127 127
-0.160885 0.043859 -0.196674 0 127 127
0.101778 -0.125379 -0.273792 0 127 127
-0.109969 0.986889 0.009124 76 153 0
-0.200050 0.077958 -0.141369 0 127 127
-0.191436 0.223521 -0.096416 0 127 127
0.168924 -0.531428 -0.232612 0 127 127
-0.001568 0.414406 -0.182134 0 127 127
0.246222 -0.189194 -0.172474 0 127 127
-0.188336 0.172421 -0.125731 0 127 127
0.107284 0.775753 0.051777 76 153 0
0.159283 -0.531428 -0.062650 0 127 127
0.048093 -0.531428 0.010355 0 127 127
0.246199 -0.152798 -0.160760 0 127 127
0.166261 -0.217069 -0.261623 0 127 127
0.029292 -0.076755 -0.281041 0 127 127
0.156721 -0.531428 -0.212570 0 127 127
-0.011266 0.045636 0.235837 0 127 127
-0.132996 0.340705 0.133171 0 127 127
0.161217 -0.082616 0.204171 0 127 127
-0.176016 0.400010 0.024495 0 127 127
0.219732 0.197500 -0.030643 0 127 127
-0.043721 0.517658 -0.153648 0 127 127
0.194547 0.303012 -0.061981 0 127 127
0.070365 -0.308104 0.286447 0 127 127
0.183645 0.094779 0.143499 0 127 127
-0.194038 -0.463968 -0.300655 0 127 127
-0.192307 0.289202 -0.061177 0 127 127
-0.115939 -0.531428 -0.226930 0 127 127
0.199057 -0.486162 -0.304151 0 127 127
-0.086912 -0.531428 0.307139 0 127 127
-0.185134 -0.071491 0.180364 0 127 127
-0.154912 -0.531428 -0.256754 0 127 127
0.152782 -0.531428 -0.166315 0 127 127
-0.174368 0.362209 0.059269 0 127 127
-0.288214 -0.202451 -0.050758 0 127 127
0.170899 0.347328 -0.097423 0 127 127
-0.276229 -0.417289 0.161649 0 127 127
0.116343 0.110058 0.197146 0 127 127
-0.323951 -0.458787 0.078875 0 127 127
0.077954 0.668786 -0.106254 0 127 127
-0.040254 0.641637 -0.127632 0 127 127
0.116134 0.813226 -0.011879 76 153 0
0.155492 -0.457590 0.280991 0 127 127
0.160215 -0.104841 -0.237966 0 127 127
-0.088753 0.596435 0.113106 0 127 127
0.105213 -0.370615 0.286223 0 127 127
0.054454 0.427345 -0.171891 0 127 127
-0.129669 0.370630 0.129389 0 127 127
0.194205 0.148031 -0.132184 0 127 127
0.155537 0.305648 0.121740 0 127 127
0.216089 0.020065 -0.144646 0 127 127
0.312266 -0.530535 0.144503 0 127 127
-0.026774 0.996658 -0.025518 76 153 0
0.337851 -0.431745 -0.020391 0 127 127
0.016624 -0.164645 -0.300968 0 127 127
-0.211671 0.170097 -0.074975 0 127 127
0.082515 -0.368727 -0.334182 0 127 127
0.078601 0.494139 0.145020 0 127 127
-0.240885 -0.531428 0.083477 0 127 127
-0.214854 -0.010048 -0.150867 0 127 127
0.082044 -0.106795 0.249314 0 127 127
-0.318574 -0.531428 -0.034717 0 127 127
-0.306448 -0.298282 0.013784 0 127 127
0.112408 -0.531428 0.058779 0 127 127
0.235828 0.105800 -0.037996 0 127 127
-0.035877 -0.297310 -0.325370 0 127 127
0.047593 0.866362 0.109588 76 153 0
-0.274721 -0.404623 -0.201809 0 127 127
-0.251675 -0.023747 0.045557 0 127 127
0.074089 -0.075304 0.247026 0 127 127
-0.034225 0.512894 0.156056 0 127 127
-0.064715 0.835192 -0.085471 76 153 0
-0.016084 -0.531428 0.272636 0 127 127
-0.312884 -0.531428 -0.006763 0 127 127
-0.056645 0.691806 0.116148 0 127 127
0.318908 -0.410454 0.075042 0 127 127
-0.146828 0.460131 0.080427 0 127 127
-0.090907 -0.186114 0.258493 0 127 127
0.120489 0.657849 0.069647 0 127 127
0.223618 0.085723 -0.099928 0 127 127
-0.060566 0.933618 -0.088655 76 153 0
0.168915 0.461814 -0.043592 0 127 127
0.048231 -0.531428 -0.294323 0 127 127
-0.020292 -0.531428 0.119874 0 127 127
-0.327716 -0.435315 0.045923 0 127 127
-0.103644 0.589735 0.101574 0 127 127
-0.265378 -0.531428 -0.221152 0 127 127
-0.034412 -0.081728 -0.280856 0 127 127
-0.285485 -0.203612 0.041211 0 127 127
0.094202 -0.032384 -0.256501 0 127 127
-0.210407 -0.531428 -0.149683 0 127 127
-0.056676 -0.411548 0.304606 0 127 127
-0.162843 -0.531428 0.277800 0 127 127
-0.048928 0.852460 -0.096038 76 153 0
0.114562 0.872000 0.033583 76 153 0
-0.238212 0.087366 -0.010321 0 127 127
-0.276210 -0.124293 -0.029514 0 127 127
0.168489 0.408266 0.066996 0 127 127
-0.031722 -0.531428 0.298509 0 127 127
0.143407 0.562254 -0.056967 0 127 127
-0.242034 -0.076064 -0.126332 0 127 127
0.208914 -0.357242 -0.263942 0 127 127
-0.211673 -0.249822 0.197692 0 127 127
-0.149417 -0.283301 -0.287717 0 127 127
0.168768 0.462976 0.038820 0 127 127
0.013072 0.324246 0.190519 0 127 127
0.006367 -0.022644 -0.272937 0 127 127
0.046939 -0.127624 -0.289153 0 127 127
0.271888 -0.531428 0.032125 0 127 127
-0.121464 -0.531428 0.124021 0 127 127
-0.120121 -0.001419 0.213235 0 127 127
0.113497 -0.178511 0.249083 0 127 127
-0.169442 0.386480 0.059925 0 127 127
0.288650 -0.529215 0.179748 0 127 127
0.090184 0.778292 0.078811 76 153 0
-0.246635 -0.531428 -0.253540 0 127 127
0.204816 -0.249229 0.205592 0 127 127
0.013298 -0.531428 0.132608 0 127 127
0.117992 0.078961 0.201948 0 127 127
-0.243425 0.046359 0.008417 0 127 127
-0.078456 -0.531428 -0.068524 0 127 127
0.243481 -0.531428 -0.072084 0 127 127
-0.163861 0.453182 -0.045199 0 127 127
-0.075420 0.753739 -0.080849 0 127 127
-0.012580 0.317381 0.191065 0 127 127
-0.125104 -0.088276 0.226648 0 127 127
0.061617 0.345788 -0.186868 0 127 127
0.307813 -0.395702 -0.135517 0 127 127
0.285641 -0.531428 0.048382 0 127 127
-0.189941 -0.531428 -0.223140 0 127 127
-0.199145 0.222262 0.064378 0 127 127
-0.333762 -0.435441 -0.001759 0 127 127
-0.253327 -0.199004 -0.161137 0 127 127
-0.238072 -0.156640 0.137568 0 127 127
-0.300988 -0.526905 -0.207648 0 127 127
0.191381 0.134585 -0.140244 0 127 127
0.171089 -0.036278 0.187079 0 127 127
0.076736 -0.511325 -0.364490 0 127 127
0.028238 -0.277302 0.286743 0 127 127
-0.031092 0.891458 0.113186 76 153 0
-0.110507 0.885387 0.005037 76 153 0
-0.211134 -0.206687 0.187314 0 127 127
-0.006612 -0.331838 -0.336226 0 127 127
0.062950 -0.102395 -0.281737 0 127 127
0.154230 0.474390 0.071367 0 127 127
0.275988 -0.142022 0.051844 0 127 127
-0.330260 -0.531428 0.031001 0 127 127
-0.072168 0.523085 0.139747 0 127 127
0.010627 -0.531428 -0.293924 0 127 127
0.189641 0.236706 0.093345 0 127 127
-0.170797 -0.517114 -0.330742 0 127 127
-0.015423 0.734676 -0.113888 0 127 127
0.233532 -0.531428 0.164481 0 127 127
-0.114904 0.645816 -0.066558 0 127 127
-0.234417 0.067169 0.048832 0 127 127
-0.002333 0.928153 -0.108732 76 153 0
-0.075377 0.153673 0.204354 0 127 127
-0.174892 0.283291 -0.105790 0 127 127
0.186145 0.365733 0.039868 0 127 127
0.030690 0.937257 0.115788 76 153 0
0.009697 -0.133017 0.265546 0 127 127
0.158645 -0.298154 -0.287928 0 127 127
0.280617 -0.143014 -0.049123 0 127 127
0.239799 -0.356442 0.195207 0 127 127
0.007393 -0.319687 -0.334322 0 127 127
-0.032872 0.581998 -0.143306 0 127 127
-0.091610 0.801903 0.066770 76 153 0
-0.075403 0.682772 0.105051 0 127 127
0.117331 0.527384 -0.110855 0 127 127
0.066672 -0.406497 0.302966 0 127 127
0.125308 -0.013584 -0.239285 0 127 127
0.114384 -0.392306 0.286292 0 127 127
-0.138333 -0.497553 -0.339661 0 127 127
-0.000901 0.996658 0.042493 76 153 0
0.325924 -0.419039 0.051657 0 127 127
0.096522 0.134615 0.200981 0 127 127
0.039553 -0.217582 0.275571 0 127 127
0.126405 -0.163033 0.241095 0 127 127
0.177813 0.425658 -0.027126 0 127 127
0.108698 0.892621 0.048363 76 153 0
-0.130793 -0.392581 0.278589 0 127 127
-0.195544 -0.531428 -0.192515 0 127 127
0.240849 0.092395 -0.017948 0 127 127
-0.289234 -0.531428 0.013586 0 127 127
0.187279 -0.531428 -0.290392 0 127 127
-0.265503 -0.531428 0.101297 0 127 127
-0.103276 0.105322 -0.220570 0 127 127
0.277392 -0.413437 -0.203772 0 127 127
0.080799 0.667135 0.109858 0 127 127
-0.064234 0.273867 0.187553 0 127 127
-0.217162 -0.019101 0.125880 0 127 127
-0.204240 -0.249956 -0.238486 0 127 127
-0.004621 -0.531428 0.301065 0 127 127
-0.047537 0.172782 0.210017 0 127 127
0.131849 0.676385 0.027524 0 127 127
0.269146 -0.470390 -0.233015 0 127 127
0.177944 -0.052136 -0.210902 0 127 127
-0.060629 -0.144703 -0.290602 0 127 127
0.326639 -0.412382 -0.080693 0 127 127
-0.051047 -0.531428 -0.327789 0 127 127
-0.045638 0.165426 -0.228158 0 127 127
0.172991 -0.258037 0.231572 0 127 127
0.061683 -0.134044 0.259147 0 127 127
0.295258 -0.379611 -0.158199 0 127 127
0.005992 0.484201 0.165317 0 127 127
0.313346 -0.531428 -0.181881 0 127 127
0.012324 0.730806 0.124253 0 127 127
-0.049899 0.192521 -0.221969 0 127 127
-0.167510 0.333221 0.089476 0 127 127
0.216402 -0.001274 -0.151121 0 127 127
0.146459 0.457503 0.091561 0 127 127
0.170166 0.431635 -0.057097 0 127 127
0.251471 0.019311 -0.041277 0 127 127
0.020380 0.454746 0.168305 0 127 127
0.287569 -0.201456 0.045476 0 127 127
0.138272 -0.531428 -0.319603 0 127 127
-0.109095 0.757030 0.030884 0 127 127
0.081810 -0.522504 0.319980 0 127 127
-0.026237 0.659149 0.133162 0 127 127
-0.013286 0.321524 -0.199913 0 127 127
-0.215923 0.191186 -0.030124 0 127 127
0.035198 -0.249243 0.281286 0 127 127
0.040203 0.274503 0.195190 0 127 127
0.317142 -0.331234 -0.036604 0 127 127
-0.032307 -0.402151 -0.347559 0 127 127
0.260567 -0.176290 -0.141043 0 127 127
0.189947 0.112485 -0.149265 0 127 127
0.111621 0.356158 -0.159192 0 127 127
-0.039758 -0.029036 -0.269255 0 127 127
-0.221228 -0.196830 0.171224 0 127 127
-0.005532 -0.531428 -0.231548 0 127 127
-0.079186 -0.531428 0.265869 0 127 127
-0.230456 -0.265201 -0.213607 0 127 127
0.124699 -0.043381 -0.246102 0 127 127
0.083521 0.641348 -0.108896 0 127 127
-0.167505 -0.531428 -0.306729 0 127 127
-0.262739 -0.531428 -0.136341 0 127 127
-0.095858 0.405858 0.148048 0 127 127
0.148443 0.320996 -0.136569 0 127 127
-0.087653 -0.531428 -0.013179 0 127 127
0.014611 0.024393 -0.262110 0 127 127
0.175395 -0.398511 -0.300368 0 127 127
0.185970 -0.337439 0.238169 0 127 127
-0.266762 -0.083315 0.013412 0 127 127
0.079608 0.836103 0.089799 76 153 0
-0.096265 -0.531428 0.062675 0 127 127
0.326351 -0.514844 0.103985 0 127 127
0.249477 0.042359 -0.023181 0 127 127
0.009453 -0.300943 0.292973 0 127 127
0.175313 0.076325 0.159316 0 127 127
-0.116453 -0.157603 0.242663 0 127 127
-0.144152 0.411399 -0.105130 0 127 127
0.152042 -0.025820 0.199369 0 127 127
-0.212674 0.081248 0.097541 0 127 127
-0.151374 0.015494 -0.211106 0 127 127
-0.006222 -0.531428 -0.303664 0 127 127
-0.272515 -0.096065 -0.013478 0 127 127
-0.057368 -0.531428 -0.176377 0 127 127
-0.192346 0.313732 -0.031523 0 127 127
-0.153752 -0.269543 -0.281788 0 127 127
-0.068647 -0.531428 0.029699 0 127 127
0.299909 -0.293405 -0.103481 0 127 127
-0.112344 -0.392074 -0.326929 0 127 127
0.152486 -0.531428 0.122038 0 127 127
0.083443 0.292905 0.178500 0 127 127
-0.318238 -0.516867 -0.166172 0 127 127
0.298612 -0.274811 -0.097318 0 127 127
-0.096699 -0.531428 -0.131337 0 127 127
-0.018477 -0.181059 -0.303464 0 127 127
0.123244 0.736399 -0.002255 0 127 127
0.182845 -0.070680 -0.211784 0 127 127
0.175224 0.242005 -0.126866 0 127 127
-0.028543 -0.204441 0.274491 0 127 127
0.246428 0.063195 -0.002534 0 127 127
0.104452 0.800849 0.058614 76 153 0
0.003827 -0.003616 0.245176 0 127 127
0.142830 0.467737 -0.096700 0 127 127
-0.102837 -0.531428 0.289136 0 127 127
-0.124319 0.426154 0.121013 0 127 127
-0.143686 0.029442 -0.213395 0 127 127
-0.237858 -0.277728 -0.208132 0 127 127
-0.145666 0.488536 0.070031 0 127 127
-0.129361 0.524933 0.086364 0 127 127
-0.123651 -0.304694 0.265899 0 127 127
0.112370 -0.338406 -0.316244 0 127 127
-0.058956 -0.097651 -0.281053 0 127 127
-0.143915 0.196756 -0.170633 0 127 127
-0.297506 -0.278192 -0.088432 0 127 127
0.009250 -0.023245 0.247693 0 127 127
-0.092403 0.986876 0.065737 76 153 0
-0.165158 0.473897 -0.006149 0 127 127
-0.100100 0.196702 0.186278 0 127 127
0.148441 -0.478501 0.287543 0 127 127
0.003755 -0.441713 -0.360074 0 127 127
0.258372 -0.257558 -0.178528 0 127 127
0.141889 0.268265 -0.157942 0 127 127
-0.092958 0.996658 -0.009490 76 153 0
0.180827 -0.508345 -0.323896 0 127 127
0.224836 0.126712 0.058667 0 127 127
-0.027167 0.996658 -0.102794 76 153 0
0.309380 -0.531428 0.063489 0 127 127
0.027656 0.912278 0.116188 76 153 0
-0.146090 -0.531428 0.058785 0 127 127
0.207338 -0.308515 -0.252857 0 127 127
-0.282936 -0.395950 -0.188391 0 127 127
0.178531 0.318465 -0.093341 0 127 127
-0.184655 0.222331 0.099618 0 127 127
0.124159 -0.531428 -0.312685 0 127 127
-0.264129 -0.166836 -0.119304 0 127 127
0.114281 0.902670 0.034885 76 153 0
-0.061788 0.556019 0.138230 0 127 127
0.124565 0.283875 0.156072 0 127 127
-0.153089 -0.531428 0.108644 0 127 127
0.099008 0.905272 0.067311 76 153 0
0.139908 0.366600 0.125124 0 127 127
0.057131 -0.531428 -0.243850 0 127 127
0.262261 -0.110941 0.075951 0 127 127
0.151323 -0.106535 0.216635 0 127 127
0.141271 0.246279 0.151147 0 127 127
0.062463 -0.531428 0.265939 0 127 127
0.182682 -0.242874 -0.255403 0 127 127
0.043471 -0.202751 -0.305177 0 127 127
0.287215 -0.189180 0.031912 0 127 127
-0.186450 -0.531428 -0.281308 0 127 127
-0.291841 -0.531428 0.113808 0 127 127
0.190373 0.361434 0.014572 0 127 127
0.031284 0.996658 0.095904 76 153 0
-0.215037 -0.391899 0.225289 0 127 127
0.148113 0.590924 0.021096 0 127 127
-0.108736 0.132752 0.194066 0 127 127
-0.006515 -0.138376 0.266663 0 127 127
-0.012445 0.204958 0.209534 0 127 127
0.093575 0.688908 0.095518 0 127 127
-0.148835 0.553932 0.014544 0 127 127
0.200033 -0.531428 -0.300122 0 127 127
-0.173709 -0.238915 0.224822 0 127 127
0.120694 0.510785 -0.111802 0 127 127
-0.122129 -0.531428 -0.209721 0 127 127
-0.149365 -0.132153 0.221008 0 127 127
0.010522 0.532383 -0.157438 0 127 127
-0.260325 -0.464852 -0.239922 0 127 127
-0.109741 0.519134 -0.114469 0 127 127
0.193296 -0.441745 0.254215 0 127 127
-0.178505 -0.379016 0.250889 0 127 127
0.046727 0.835123 0.109946 76 153 0
-0.269837 -0.516053 0.198246 0 127 127
-0.301352 -0.488052 -0.191886 0 127 127
-0.223806 -0.531428 -0.234204 0 127 127
-0.038549 -0.440557 -0.354734 0 127 127
-0.230062 0.117045 0.010771 0 127 127
-0.139880 -0.198081 0.240042 0 127 127
0.089483 0.884781 0.079726 76 153 0
-0.180664 -0.158363 -0.233088 0 127 127
-0.015481 0.996658 0.072562 76 153 0
0.052492 0.996658 0.072038 76 153 0
0.325517 -0.391927 -0.059511 0 127 127
0.203911 0.159890 0.093726 0 127 127
0.221849 -0.188967 0.172287 0 127 127
-0.007021 0.996658 -0.044636 76 153 0
0.181140 -0.531428 0.211450 0 127 127
-0.032845 -0.138597 -0.292845 0 127 127
0.098898 0.224740 0.184140 0 127 127
-0.067401 0.006085 -0.257174 0 127 127
0.277857 -0.359464 0.146976 0 127 127
0.011665 -0.217501 -0.312588 0 127 127
-0.172572 -0.281198 -0.270468 0 127 127
-0.028218 0.051993 -0.253912 0 127 127
-0.088548 -0.531428 0.229440 0 127 127
0.055034 0.708243 0.117011 0 127 127
-0.170333 -0.012630 0.179331 0 127 127
0.203579 -0.346605 0.226702 0 127 127
0.089599 0.981211 -0.069813 76 153 0
0.275179 -0.313157 0.135585 0 127 127
0.110231 -0.406504 0.290482 0 127 127
0.279657 -0.531428 -0.068183 0 127 127
-0.079143 0.802591 0.083018 76 153 0
-0.302644 -0.283877 -0.058851 0 127 127
0.298032 -0.236970 -0.049345 0 127 127
0.208083 0.256591 0.023279 0 127 127
-0.144762 0.576676 -0.012096 0 127 127
0.166999 -0.375792 0.260513 0 127 127
0.211928 -0.002086 0.133680 0 127 127
0.136072 0.017954 -0.225647 0 127 127
0.190504 -0.095553 0.184594 0 127 127
0.292604 -0.231938 0.048813 0 127 127
0.300080 -0.226743 -0.018102 0 127 127
-0.226370 0.117074 -0.057104 0 127 127
0.047765 0.183097 0.209140 0 127 127
-0.116686 -0.136653 0.238825 0 127 127
-0.181229 0.252839 0.093712 0 127 127
-0.242390 -0.081393 0.101231 0 127 127
0.056459 0.598551 0.135772 0 127 127
-0.177807 0.033319 0.162693 0 127 127
-0.109160 0.962470 -0.005510 76 153 0
-0.098472 0.850685 -0.044427 76 153 0
0.163302 0.163843 0.150729 0 127 127
0.239533 -0.268428 0.171344 0 127 127
0.299106 -0.333385 0.087706 0 127 127
-0.083990 0.429521 0.151482 0 127 127
-0.343017 -0.511323 -0.080972 0 127 127
-0.149698 -0.462231 0.283077 0 127 127
0.008451 -0.091835 0.258984 0 127 127
0.022067 0.209889 -0.222701 0 127 127
-0.243514 0.038699 -0.041135 0 127 127
-0.064590 -0.391837 -0.341343 0 127 127
-0.282682 -0.300993 0.105787 0 127 127
0.298568 -0.258841 0.040657 0 127 127
0.324018 -0.379722 0.013863 0 127 127
-0.220921 -0.531428 -0.082126 0 127 127
0.099915 0.418267 -0.152526 0 127 127
-0.334368 -0.477135 0.054455 0 127 127
0.127356 0.705110 -0.015264 0 127 127
0.068032 -0.075156 -0.275403 0 127 127
0.323826 -0.368513 -0.038479 0 127 127
0.226214 -0.299695 -0.234489 0 127 127
-0.311247 -0.509789 0.133994 0 127 127
0.180493 0.396825 -0.047532 0 127 127
-0.012291 -0.379258 -0.345341 0 127 127
-0.236972 -0.531428 0.221352 0 127 127
0.260700 -0.387622 0.176839 0 127 127
0.127686 -0.364911 -0.315641 0 127 127
-0.144601 0.559239 -0.038053 0 127 127
-0.226179 0.046840 0.080640 0 127 127
0.087704 0.007106 0.226988 0 127 127
-0.019862 0.255775 -0.212714 0 127 127
0.019465 -0.368264 0.302691 0 127 127
0.044550 -0.316583 0.291091 0 127 127
0.055914 0.816694 -0.096380 76 153 0
0.056530 0.089058 -0.242989 0 127 127
0.081381 0.479297 -0.149228 0 127 127
0.334798 -0.438716 -0.054811 0 127 127
0.299065 -0.463878 -0.191201 0 127 127
0.260703 -0.287494 0.149297 0 127 127
-0.165110 -0.531428 0.181036 0 127 127
0.030588 0.842279 -0.106041 76 153 0
0.198507 0.177076 0.098900 0 127 127
-0.152215 -0.531428 -0.196129 0 127 127
0.222574 -0.244211 -0.221386 0 127 127
0.120731 -0.491726 -0.346487 0 127 127
-0.308908 -0.298283 -0.033192 0 127 127
-0.024517 -0.531428 0.181627 0 127 127
-0.303462 -0.429212 0.115173 0 127 127
0.192124 0.222337 -0.108304 0 127 127
-0.023514 0.531717 -0.154982 0 127 127
0.282072 -0.171314 0.045955 0 127 127
0.047566 0.898639 -0.099838 76 153 0
-0.238393 -0.010429 -0.102070 0 127 127
0.259189 -0.403335 0.183108 0 127 127
0.195281 0.337840 -0.017942 0 127 127
-0.073551 -0.159993 0.261035 0 127 127
-0.341689 -0.491072 -0.062455 0 127 127
0.296457 -0.207776 -0.011229 0 127 127
0.136023 -0.183157 -0.272117 0 127 127
0.042655 -0.083619 -0.280631 0 127 127
0.107930 -0.123166 0.241628 0 127 127
0.135265 0.515070 0.090176 0 127 127
0.053411 -0.446107 -0.354186 0 127 127
0.157269 0.537634 0.024575 0 127 127
-0.066098 -0.531428 0.094672 0 127 127
-0.293403 -0.531428 -0.036643 0 127 127
-0.100292 -0.439575 0.299801 0 127 127
0.223332 0.058869 -0.114123 0 127 127
0.202087 -0.058887 0.161987 0 127 127
0.177669 -0.198990 0.215790 0 127 127
0.281108 -0.159687 -0.069739 0 127 127
0.137871 -0.531428 -0.060232 0 127 127
-0.062124 0.330675 0.178295 0 127 127
-0.242934 -0.531428 -0.233861 0 127 127
-0.143728 0.312661 0.127900 0 127 127
-0.205278 0.003437 -0.158845 0 127 127
0.007015 0.615540 0.143761 0 127 127
-0.288546 -0.184116 -0.022703 0 127 127
0.018975 0.068193 0.231547 0 127 127
0.207652 -0.252444 -0.238451 0 127 127
-0.314784 -0.531428 0.094062 0 127 127
0.080983 0.410139 0.158853 0 127 127
-0.114491 0.423101 -0.135366 0 127 127
-0.038388 0.006668 -0.262025 0 127 127
-0.191117 0.305481 0.042687 0 127 127
0.099078 0.108183 -0.223501 0 127 127
-0.324707 -0.496703 -0.140671 0 127 127
0.084995 -0.392107 0.298250 0 127 127
0.244235 -0.291866 0.171728 0 127 127
0.085298 0.764742 0.086025 0 127 127
0.136672 0.438072 -0.114323 0 127 127
-0.168993 0.431052 0.034198 0 127 127
0.256616 -0.518700 -0.265114 0 127 127
-0.001057 0.080567 -0.251418 0 127 127
0.264700 -0.134940 0.080873 0 127 127
-0.185996 0.272633 -0.084721 0 127 127
0.048504 -0.464045 -0.358571 0 127 127
0.008886 0.685125 0.132172 0 127 127
-0.228381 -0.007310 0.100715 0 127 127
-0.034884 0.562916 0.147762 0 127 127
0.115213 0.838539 0.028636 76 153 0
-0.286741 -0.531428 -0.140972 0 127 127
0.001129 -0.039091 0.251304 0 127 127
0.139190 0.162355 -0.186787 0 127 127
0.173544 0.458734 0.009065 0 127 127
0.310120 -0.290270 -0.002329 0 127 127
-0.143992 0.267942 0.140111 0 127 127
-0.186437 0.022870 0.154388 0 127 127
-0.205999 0.230028 0.035724 0 127 127
-0.138260 0.530442 -0.068955 0 127 127
-0.190800 -0.516677 -0.316517 0 127 127
0.104989 0.310268 0.165464 0 127 127
-0.188436 -0.258707 -0.252707 0 127 127
0.133057 0.032625 0.201672 0 127 127
0.303816 -0.531428 0.032740 0 127 127
-0.085701 0.529145 0.129711 0 127 127
0.052863 -0.269697 0.282392 0 127 127
-0.186934 0.267483 0.073031 0 127 127
0.185127 -0.307379 0.232581 0 127 127
0.151172 0.337791 -0.127621 0 127 127
0.069639 -0.531428 -0.199288 0 127 127
-0.037461 -0.531428 -0.316407 0 127 127
0.294722 -0.531428 -0.127857 0 127 127
0.289549 -0.312477 -0.138454 0 127 127
0.244983 0.010937 0.062523 0 127 127
0.074445 0.968501 -0.084001 76 153 0
-0.225664 -0.531428 -0.197367 0 127 127
0.169329 0.187766 -0.152123 0 127 127
-0.094672 0.666929 0.091379 0 127 127
-0.182969 -0.411486 -0.295710 0 127 127
0.057590 0.530202 0.147348 0 127 127
-0.008975 -0.072965 -0.282252 0 127 127
0.013387 -0.531428 0.253965 0 127 127
-0.076250 0.202669 -0.210067 0 127 127
0.027040 0.739453 -0.112377 0 127 127
0.114841 0.142140 0.192108 0 127 127
0.290507 -0.195180 0.015774 0 127 127
0.021257 0.415199 0.174646 0 127 127
0.321636 -0.386626 -0.082446 0 127 127
-0.052105 0.221518 -0.215655 0 127 127
-0.107368 -0.378642 0.285947 0 127 127
-0.287155 -0.377075 0.130611 0 127 127
0.148100 0.398425 0.105811 0 127 127
-0.074076 0.003946 0.231618 0 127 127
0.189036 -0.025624 0.169664 0 127 127
-0.107541 0.986575 -0.017802 76 153 0
-0.167390 -0.206441 -0.255390 0 127 127
-0.181866 0.325665 0.058083 0 127 127
0.040088 -0.284741 -0.322611 0 127 127
0.051522 0.996658 -0.031379 76 153 0
0.102148 -0.030029 0.227620 0 127 127
-0.196723 0.276736 -0.051106 0 127 127
0.082574 -0.295423 -0.319002 0 127 127
0.007759 -0.335993 0.298905 0 127 127
-0.330297 -0.462829 -0.106270 0 127 127
0.171948 0.168853 -0.154783 0 127 127
-0.157139 0.274784 -0.132804 0 127 127
0.262173 -0.235468 0.131806 0 127 127
-0.076845 0.923497 -0.076164 76 153 0
0.275630 -0.165576 -0.098746 0 127 127
-0.300695 -0.285550 0.040692 0 127 127
0.254675 0.006904 0.011560 0 127 127
-0.034314 -0.233475 0.278463 0 127 127
0.074729 0.236687 -0.205442 0 127 127
0.063578 0.364528 0.174020 0 127 127
0.246753 -0.005452 -0.089049 0 127 127
0.278236 -0.191337 -0.105305 0 127 127
0.132091 -0.276486 -0.294320 0 127 127
0.014777 0.996658 -0.103918 76 153 0
-0.194911 -0.505095 0.264968 0 127 127
-0.020189 -0.531428 -0.030668 0 127 127
0.196508 0.259483 -0.079051 0 127 127
-0.317718 -0.531428 -0.080725 0 127 127
0.184921 0.290659 -0.091735 0 127 127
0.270806 -0.067506 -0.008600 0 127 127
0.126905 -0.109948 -0.259831 0 127 127
-0.098929 -0.104119 -0.268691 0 127 127
0.215761 -0.531428 -0.204702 0 127 127
-0.227778 -0.222337 -0.203141 0 127 127
-0.291687 -0.221970 -0.052601 0 127 127
-0.308317 -0.459806 -0.161150 0 127 127
0.021665 0.328342 -0.198230 0 127 127
-0.063156 -0.517378 0.321077 0 127 127
-0.091434 0.126848 -0.220647 0 127 127
0.004984 0.166835 -0.233876 0 127 127
-0.302049 -0.430490 -0.161353 0 127 127
0.197449 -0.518929 -0.313676 0 127 127
-0.200330 0.157076 0.092104 0 127 127
-0.149348 -0.292423 0.252906 0 127 127
-0.077438 0.580055 0.125261 0 127 127
-0.060459 -0.334170 -0.329908 0 127 127
0.123883 -0.416313 -0.328558 0 127 127
-0.012095 0.154150 0.217919 0 127 127
0.007473 0.337173 -0.198269 0 127 127
0.192715 0.329087 -0.050478 0 127 127
-0.079450 -0.531428 -0.035708 0 127 127
0.337327 -0.510841 0.076088 0 127 127
0.252592 -0.531428 0.104829 0 127 127
0.172210 0.284020 -0.117279 0 127 127
0.062853 -0.271420 -0.316735 0 127 127
0.146851 0.313652 0.130736 0 127 127
-0.322155 -0.472150 -0.134423 0 127 127
-0.007520 -0.531428 -0.151121 0 127 127
-0.094053 -0.531428 0.259118 0 127 127
0.089050 0.938643 0.080290 76 153 0
0.047171 -0.531428 -0.361122 0 127 127
0.276924 -0.098797 -0.013369 0 127 127
-0.260082 -0.140091 -0.115517 0 127 127
0.143749 -0.340144 0.265143 0 127 127
0.260514 -0.531428 -0.185241 0 127 127
0.127037 -0.128533 -0.263868 0 127 127
-0.099168 -0.531428 -0.279746 0 127 127
0.287996 -0.210686 -0.089935 0 127 127
-0.246904 -0.225081 -0.179377 0 127 127
-0.174779 0.007592 -0.195294 0 127 127
0.127651 0.197006 0.171725 0 127 127
-0.265177 -0.254951 -0.161010 0 127 127
0.208780 -0.531428 0.031868 0 127 127
0.051851 -0.531428 -0.173931 0 127 127
0.316997 -0.462394 0.102800 0 127 127
0.336202 -0.470512 -0.090424 0 127 127
0.255605 -0.531428 -0.019463 0 127 127
-0.064143 0.139844 -0.228908 0 127 127
-0.107839 0.621868 -0.083599 0 127 127
-0.076546 -0.066622 -0.269529 0 127 127
-0.282589 -0.343241 0.125886 0 127 127
0.276150 -0.443637 -0.215154 0 127 127
0.091356 0.671104 -0.095386 0 127 127
-0.174879 0.199541 0.119217 0 127 127
-0.011963 0.770993 0.117225 0 127 127
-0.107381 -0.531428 -0.046270 0 127 127
-0.025184 0.967040 -0.105724 76 153 0
0.169343 -0.288437 -0.277259 0 127 127
-0.125671 0.643791 -0.041797 0 127 127
-0.094898 0.652046 0.095304 0 127 127
-0.212412 0.186586 0.048087 0 127 127
0.088015 0.137427 -0.221713 0 127 127
-0.098860 -0.150721 -0.279031 0 127 127
0.114807 0.048805 0.208588 0 127 127
-0.127496 0.514841 -0.092996 0 127 127
-0.123391 0.490126 -0.106395 0 127 127
0.084632 0.522238 0.137005 0 127 127
0.031991 -0.531428 0.261897 0 127 127
0.100436 0.621115 0.104379 0 127 127
0.146206 -0.042214 0.207195 0 127 127
-0.135020 0.183557 -0.180779 0 127 127
0.158645 -0.032549 -0.220925 0 127 127
0.226992 -0.100778 0.141404 0 127 127
0.295345 -0.293447 0.078808 0 127 127
-0.105017 -0.050846 0.228410 0 127 127
-0.016800 0.589944 0.145777 0 127 127
-0.218341 0.179735 0.011834 0 127 127
-0.283203 -0.515084 -0.226738 0 127 127
