ply
format ascii 1.0
element vertex 1253
property float x
property float y
property float z
property uchar red
property uchar green
property uchar blue
end_header
0.197503 -0.350158 0.472580 153 0 76
0.520337 -0.077539 -0.043946 153 0 76
-0.434155 -0.687963 0.191083 153 0 76
-0.359335 -0.721324 -0.144748 76 153 0
0.396044 0.176443 -0.393692 0 127 127
-0.516141 -0.619575 0.139503 0 127 127
-0.087572 -0.692520 0.286959 153 0 76
0.395384 -0.755804 -0.303737 76 153 0
-0.393269 0.205561 0.308558 153 0 76
0.272991 0.789270 -0.398028 127 0 127
-0.425043 0.626633 -0.261346 0 127 127
0.447652 -0.346987 0.255885 153 0 76
-0.495335 -0.287403 -0.223145 0 127 127
-0.480702 0.713372 0.072384 0 127 127
-0.441867 0.789270 0.195252 127 0 127
-0.544854 -0.038639 0.089834 0 127 127
0.115876 -0.712778 0.014749 0 127 127
-0.068981 -0.320245 -0.535012 0 127 127
-0.499500 -0.569173 0.098513 153 0 76
-0.271146 0.228816 0.234356 153 0 76
0.040147 -0.544677 0.527865 0 127 127
0.500138 0.181319 -0.181305 153 0 76
-0.061188 -0.695301 0.200421 0 127 127
0.382984 -0.573541 -0.365714 0 127 127
0.290645 0.617562 0.437020 0 127 127
-0.462012 0.642973 -0.173917 0 127 127
0.085409 0.205561 -0.486698 153 0 76
-0.386077 -0.283072 -0.348917 153 0 76
-0.119663 -0.702552 -0.540833 76 153 0
-0.048324 -0.671826 -0.360832 153 0 76
-0.552034 0.159962 -0.092580 0 127 127
-0.213169 -0.755737 -0.027767 76 153 0
-0.422223 -0.112683 0.350068 0 127 127
0.133233 -0.719152 0.285325 0 127 127
-0.252807 -0.684061 0.046021 153 0 76
0.017206 -0.363331 -0.516105 153 0 76
-0.091449 -0.755737 -0.203401 76 153 0
0.356058 0.875138 -0.265785 127 0 127
-0.248352 -0.235065 -0.485318 0 127 127
0.548632 0.102260 0.044906 0 127 127
-0.482819 0.079584 0.223004 153 0 76
-0.374833 -0.165866 -0.370603 153 0 76
0.446114 -0.210246 0.267231 153 0 76
-0.431633 0.396681 0.435407 0 127 127
-0.372153 0.021785 0.380227 153 0 76
-0.040961 -0.082056 -0.523956 153 0 76
0.476060 0.620499 -0.130654 0 127 127
-0.487093 -0.462812 -0.162628 153 0 76
0.230247 -0.093553 0.493666 0 127 127
-0.535564 -0.364325 -0.070978 0 127 127
0.234662 0.004695 -0.497432 0 127 127
-0.196595 -0.074493 0.485794 0 127 127
0.532670 0.205561 0.006695 153 0 76
-0.522289 -0.042860 -0.074397 153 0 76
0.404862 0.875141 0.162441 127 0 127
-0.003614 -0.695301 0.354175 153 0 76
0.465894 -0.300402 0.272342 0 127 127
0.000047 -0.755737 0.154902 76 153 0
0.536729 0.520492 -0.269434 0 127 127
0.270367 -0.755737 -0.146391 76 153 0
-0.426872 -0.466646 -0.284739 153 0 76
0.012802 0.261372 -0.231465 153 0 76
0.457629 0.039077 -0.268893 153 0 76
-0.358727 -0.720574 -0.066420 0 127 127
0.317866 -0.107833 -0.442191 0 127 127
-0.308598 -0.454846 0.407051 153 0 76
0.601449 0.367065 -0.010994 0 127 127
-0.480307 -0.319853 -0.192655 153 0 76
-0.224512 0.677951 0.427029 0 127 127
-0.527816 0.617565 -0.001779 0 127 127
0.252951 -0.721232 0.282262 0 127 127
-0.091878 -0.669963 0.517421 0 127 127
0.475274 -0.364692 -0.246510 0 127 127
-0.523501 0.113675 0.107282 153 0 76
-0.280494 0.206395 0.453732 153 0 76
-0.168616 0.726315 -0.459463 0 127 127
-0.530290 0.056282 -0.041362 153 0 76
-0.530758 -0.059734 0.003635 153 0 76
0.086647 -0.695301 -0.284450 153 0 76
-0.356849 0.214863 -0.321287 153 0 76
0.500332 -0.338420 0.186812 0 127 127
-0.120344 -0.695301 0.333123 0 127 127
-0.478093 0.225865 0.297568 0 127 127
-0.468568 -0.431118 -0.210376 153 0 76
-0.443547 -0.677068 -0.146027 153 0 76
-0.443237 -0.205989 0.277339 153 0 76
-0.144500 0.014147 -0.512587 153 0 76
0.523822 -0.551388 0.050455 0 127 127
-0.513839 0.617556 -0.183041 0 127 127
0.345493 0.872584 0.052045 127 0 127
-0.017008 0.232596 0.377915 153 0 76
-0.344582 -0.537367 0.375640 153 0 76
-0.508421 -0.657935 -0.156190 76 153 0
0.447008 -0.436327 -0.290509 0 127 127
-0.532502 -0.147744 0.145036 0 127 127
0.155222 0.003237 -0.530279 0 127 127
0.532924 0.014462 0.139656 0 127 127
-0.470830 -0.340424 0.273058 0 127 127
-0.437918 0.255988 -0.353443 0 127 127
0.548967 0.067319 0.032584 0 127 127
-0.438740 -0.741025 0.077763 76 153 0
0.538054 -0.082197 -0.075350 0 127 127
-0.382288 -0.431349 -0.344959 153 0 76
0.048312 0.268112 -0.197201 153 0 76
-0.091302 -0.695301 -0.162632 153 0 76
-0.559215 0.500418 0.240837 0 127 127
0.455051 0.094933 0.310192 0 127 127
-0.077379 0.279975 0.046680 153 0 76
-0.007786 -0.368734 -0.541282 0 127 127
0.302371 -0.719290 -0.100970 0 127 127
-0.017010 -0.683770 0.005958 153 0 76
0.428158 -0.365077 0.281343 153 0 76
-0.284161 0.875132 -0.364179 127 0 127
0.014467 -0.755737 0.322512 76 153 0
-0.371796 0.583681 0.448160 0 127 127
-0.538373 0.617557 -0.058025 0 127 127
-0.339616 0.238118 0.031094 153 0 76
0.300344 -0.147203 -0.425664 153 0 76
0.504732 -0.599037 -0.016548 153 0 76
-0.127580 0.144570 -0.520901 153 0 76
-0.522118 -0.188329 -0.167941 0 127 127
-0.020056 0.220210 0.431559 153 0 76
0.277766 -0.671946 -0.400027 153 0 76
-0.478606 0.875125 -0.025509 127 0 127
0.257199 0.247419 -0.115437 153 0 76
0.243061 -0.755737 0.180997 76 153 0
-0.309278 -0.256705 -0.417361 153 0 76
0.089499 -0.009522 0.517911 153 0 76
-0.130146 -0.348657 -0.502393 153 0 76
0.508994 -0.193233 0.096023 153 0 76
-0.413734 0.814755 0.274373 127 0 127
0.495826 -0.459414 0.121555 153 0 76
0.391804 -0.411807 -0.363924 0 127 127
-0.126615 -0.551384 0.517199 153 0 76
-0.496322 -0.329756 -0.153048 153 0 76
0.552815 0.105658 0.014082 0 127 127
-0.343178 0.240797 -0.022708 153 0 76
-0.046341 -0.190341 -0.542778 0 127 127
0.296963 -0.002597 -0.463076 0 127 127
0.517527 0.011552 0.088510 153 0 76
-0.030782 0.865845 0.282486 127 0 127
0.181977 -0.695301 -0.397997 153 0 76
0.361348 0.875130 0.286632 127 0 127
-0.134320 0.683242 -0.465832 0 127 127
-0.007925 -0.712043 -0.099059 153 0 76
0.285856 -0.033804 -0.442001 153 0 76
-0.543460 -0.151843 -0.070454 0 127 127
-0.270725 -0.312127 -0.444393 0 127 127
-0.372672 0.864038 -0.118207 127 0 127
-0.564794 0.376386 0.221339 0 127 127
0.519950 0.388664 0.311495 0 127 127
0.004801 -0.755802 0.491108 0 127 127
-0.122458 0.230266 0.369454 153 0 76
-0.014439 0.052616 -0.555928 0 127 127
-0.375332 0.702672 0.304094 0 127 127
-0.183254 -0.258880 0.484031 153 0 76
-0.290240 0.188519 -0.452466 153 0 76
0.265553 0.249607 0.117375 153 0 76
0.061385 -0.605678 -0.524532 0 127 127
-0.109121 -0.695301 0.072033 153 0 76
0.104903 0.855425 0.130002 127 0 127
0.515700 0.201236 0.201216 0 127 127
-0.287721 -0.695301 -0.031601 153 0 76
-0.403303 -0.755804 0.301588 76 153 0
0.551162 0.076998 -0.020327 0 127 127
0.039200 0.248073 0.302902 153 0 76
0.342996 0.875125 0.328665 127 0 127
-0.500914 -0.330412 0.203861 0 127 127
0.253113 -0.695301 0.122410 153 0 76
-0.203537 0.875127 -0.426859 127 0 127
0.152766 -0.755804 -0.479000 0 127 127
0.267068 -0.695301 -0.167571 153 0 76
-0.546745 0.044697 0.098788 0 127 127
-0.375755 0.228816 -0.111657 153 0 76
0.211007 -0.679224 -0.165236 153 0 76
0.294754 -0.718473 -0.001006 0 127 127
-0.414645 -0.503438 -0.298465 153 0 76
0.298865 -0.203624 -0.424201 153 0 76
-0.579406 0.537259 -0.173577 0 127 127
-0.025609 -0.695301 -0.181647 0 127 127
-0.142326 -0.281946 -0.526766 0 127 127
-0.443246 -0.662965 -0.249381 153 0 76
0.373818 0.617548 0.412975 0 127 127
-0.252129 -0.695301 -0.402617 153 0 76
0.517107 -0.582761 -0.094386 0 127 127
-0.012961 0.856083 0.068022 127 0 127
0.142086 0.206354 0.513186 153 0 76
-0.528085 -0.660306 -0.044968 0 127 127
-0.306407 -0.682298 0.452299 76 153 0
0.464277 0.216157 0.074848 153 0 76
-0.194162 -0.147923 -0.485609 153 0 76
0.337026 0.862391 0.102345 127 0 127
0.033289 -0.755737 -0.002269 76 153 0
0.217403 0.617568 -0.465132 0 127 127
0.277284 -0.728435 0.323739 76 153 0
-0.474967 0.858331 -0.146594 127 0 127
-0.541455 -0.386162 -0.020118 0 127 127
-0.202376 0.081749 0.489576 153 0 76
0.293719 -0.122606 0.458329 0 127 127
-0.049393 -0.644123 -0.525659 0 127 127
-0.208398 -0.115134 -0.481008 153 0 76
0.187304 -0.695301 -0.369213 153 0 76
0.269296 0.020487 -0.457208 153 0 76
-0.336177 -0.695301 -0.233735 153 0 76
-0.521850 -0.751045 -0.153902 76 153 0
0.379686 -0.322505 0.383162 0 127 127
-0.348380 -0.137364 -0.392851 153 0 76
-0.493598 -0.560830 -0.137569 153 0 76
0.336507 -0.755799 0.322321 76 153 0
-0.122953 0.855425 0.122710 127 0 127
0.488580 -0.120910 0.178654 153 0 76
0.190276 -0.663511 0.487691 0 127 127
-0.542124 0.408152 0.288471 0 127 127
0.263639 -0.287429 0.445663 153 0 76
0.116551 0.281587 0.022703 153 0 76
-0.030607 0.855425 0.035577 127 0 127
0.195449 -0.721661 -0.344730 0 127 127
0.460587 0.557951 -0.367062 0 127 127
0.511473 -0.392448 -0.023154 153 0 76
0.304923 0.874514 -0.175547 127 0 127
-0.216783 -0.696059 0.413898 153 0 76
-0.484835 -0.178737 -0.195192 153 0 76
-0.120037 0.711472 -0.471793 0 127 127
0.544528 0.208436 0.105788 0 127 127
0.039514 -0.674300 -0.295567 153 0 76
-0.074555 0.036994 0.545728 0 127 127
0.516248 -0.168014 -0.049689 153 0 76
0.199527 -0.720951 -0.314065 76 153 0
-0.086464 0.240347 -0.553362 0 127 127
-0.567338 0.291860 0.101702 0 127 127
0.477293 0.525283 0.359418 0 127 127
-0.444889 0.118257 -0.296351 153 0 76
-0.533673 -0.422157 0.067447 0 127 127
0.093168 0.875185 -0.333342 127 0 127
0.592065 0.512887 0.100514 0 127 127
0.038063 0.338579 0.592042 0 127 127
0.524839 -0.347055 0.099901 0 127 127
-0.331093 -0.017469 0.409925 153 0 76
-0.077632 0.033676 -0.546911 0 127 127
-0.443698 -0.377220 -0.307919 0 127 127
0.119456 -0.713120 -0.046148 0 127 127
0.112983 -0.713660 -0.091439 153 0 76
-0.419920 0.219514 0.063162 153 0 76
-0.030691 -0.317713 0.514916 153 0 76
0.542804 -0.679843 0.001652 0 127 127
0.064342 0.103388 -0.550264 0 127 127
-0.142015 -0.695301 0.082040 153 0 76
-0.216734 -0.047440 0.478522 153 0 76
0.112827 -0.724050 0.409825 0 127 127
-0.364275 -0.072997 0.412097 0 127 127
-0.351158 0.837467 -0.077160 127 0 127
-0.369221 0.306533 0.449824 0 127 127
-0.523775 -0.755737 0.079818 76 153 0
0.462517 0.319287 -0.356326 0 127 127
0.532678 0.073783 -0.149773 0 127 127
0.526916 -0.002282 0.013323 153 0 76
-0.090741 0.354481 -0.592862 0 127 127
-0.475037 0.207399 -0.231363 153 0 76
-0.482246 0.534777 -0.360479 0 127 127
-0.390978 0.676866 0.282820 0 127 127
-0.481653 0.721838 -0.086281 0 127 127
0.191668 -0.138677 0.507863 0 127 127
0.049512 -0.311680 0.512044 153 0 76
-0.021318 -0.736835 0.548395 76 153 0
-0.455679 -0.494417 0.233742 153 0 76
0.599947 0.503588 0.051715 0 127 127
-0.376541 -0.233335 -0.364329 0 127 127
0.402634 0.844289 -0.280999 127 0 127
0.092596 0.219514 -0.425548 153 0 76
-0.204826 -0.463952 0.492588 0 127 127
-0.047186 0.855425 -0.033046 127 0 127
0.503613 -0.176586 -0.138756 153 0 76
0.075326 -0.715588 0.190532 153 0 76
0.011944 -0.549289 -0.533118 0 127 127
-0.444294 0.111187 0.294992 153 0 76
-0.155378 -0.755737 -0.170972 76 153 0
-0.332334 0.617557 0.425013 0 127 127
0.335465 -0.211017 0.422227 0 127 127
0.517989 0.179249 0.131922 153 0 76
-0.005614 -0.695301 -0.299538 153 0 76
0.541986 -0.018590 0.061569 0 127 127
0.010889 -0.755807 -0.528192 76 153 0
-0.487658 0.617576 -0.132175 0 127 127
-0.530399 -0.567051 0.051770 0 127 127
0.365884 0.387125 0.478606 0 127 127
0.531400 -0.358057 -0.048700 0 127 127
0.051933 -0.685626 0.054518 153 0 76
-0.252550 0.119317 -0.497589 0 127 127
0.538364 0.493109 -0.277871 0 127 127
0.301397 0.445313 0.533314 0 127 127
0.025403 -0.695301 -0.366884 153 0 76
0.337285 -0.695301 -0.296943 153 0 76
-0.075065 -0.675444 -0.244952 153 0 76
-0.426027 -0.743515 -0.343475 76 153 0
-0.002910 -0.709954 -0.034652 153 0 76
0.407512 0.698634 -0.253467 0 127 127
0.461676 -0.621646 -0.197523 153 0 76
-0.393290 -0.636685 -0.358045 0 127 127
0.102833 -0.091734 -0.538008 0 127 127
0.180947 0.080609 -0.498177 153 0 76
0.226440 -0.232783 -0.491449 153 0 76
0.137359 -0.494200 -0.518013 0 127 127
-0.125415 -0.713759 -0.089806 153 0 76
-0.409785 -0.120361 0.326072 153 0 76
0.198919 -0.755805 -0.473290 76 153 0
-0.265080 -0.670792 -0.466980 0 127 127
0.258678 -0.687154 0.074742 153 0 76
-0.352014 -0.330208 0.409664 0 127 127
0.176729 -0.690004 0.174037 153 0 76
-0.070580 -0.711050 -0.008440 0 127 127
-0.102353 -0.755737 0.118368 76 153 0
-0.148778 -0.064125 -0.533321 0 127 127
-0.453775 0.013987 -0.318258 0 127 127
0.113261 0.757563 -0.482594 0 127 127
0.414406 0.214863 -0.158848 153 0 76
0.090001 -0.024351 -0.519009 153 0 76
-0.258065 -0.081366 0.485661 0 127 127
0.517798 -0.521085 -0.106402 0 127 127
0.204521 0.426547 0.572572 0 127 127
-0.367743 -0.428578 0.393066 0 127 127
0.537956 -0.296860 -0.016026 0 127 127
-0.272572 0.117080 0.461025 153 0 76
-0.344333 -0.104453 -0.397472 0 127 127
-0.519782 0.076125 0.125021 153 0 76
0.451630 -0.119938 0.301759 0 127 127
-0.244180 -0.695301 -0.155265 153 0 76
0.422194 0.669645 -0.229374 0 127 127
-0.521160 0.607586 -0.231822 0 127 127
-0.491348 0.839490 0.070913 127 0 127
-0.414967 0.221279 -0.119224 153 0 76
0.014384 0.238631 0.312116 153 0 76
-0.444697 -0.518359 0.296440 0 127 127
0.421325 -0.087763 0.343183 0 127 127
-0.154265 0.106472 -0.537792 0 127 127
0.358495 -0.688935 0.116900 153 0 76
0.024236 -0.288088 0.516241 153 0 76
0.459081 -0.169919 -0.290759 0 127 127
0.347612 -0.017546 -0.395363 153 0 76
-0.539364 0.187327 -0.162160 0 127 127
-0.458459 0.731974 -0.181891 0 127 127
0.456960 -0.415751 0.277065 0 127 127
-0.085198 0.134385 0.547915 0 127 127
-0.270033 -0.538137 -0.464356 0 127 127
0.527120 -0.369563 -0.077992 0 127 127
0.098297 -0.650634 -0.494845 153 0 76
-0.426684 -0.502191 0.281140 153 0 76
0.514226 -0.251926 -0.041562 153 0 76
-0.494037 0.457422 -0.363425 0 127 127
0.088808 -0.221542 0.510192 153 0 76
0.403320 -0.430627 0.346077 153 0 76
0.200881 -0.404619 0.469028 153 0 76
0.043560 -0.519962 -0.530036 0 127 127
0.329283 0.666635 -0.352281 0 127 127
-0.020155 -0.691442 0.244616 153 0 76
0.329889 -0.475273 0.414339 0 127 127
0.480565 -0.314773 0.179500 153 0 76
0.293124 0.204274 -0.447386 153 0 76
-0.466131 -0.372896 -0.221816 153 0 76
-0.168483 -0.695301 -0.062417 153 0 76
-0.277295 0.845477 -0.412151 127 0 127
0.469124 -0.270655 -0.270332 0 127 127
0.297560 -0.713716 -0.464523 76 153 0
0.076232 0.855425 0.222929 127 0 127
-0.193678 -0.109396 -0.512933 0 127 127
0.253187 0.194279 0.495543 0 127 127
-0.598383 0.547774 -0.040810 0 127 127
0.196804 -0.755737 0.100064 76 153 0
-0.284293 -0.043202 0.444652 153 0 76
-0.468214 0.701223 0.132756 0 127 127
-0.460413 -0.627606 0.269403 0 127 127
-0.283754 -0.140214 0.440599 153 0 76
0.164721 0.019472 0.500772 153 0 76
0.206884 0.864038 -0.318314 127 0 127
-0.061214 0.180191 0.529241 153 0 76
0.325415 -0.017377 -0.412403 153 0 76
-0.169134 0.831113 0.464093 127 0 127
0.193161 0.874840 0.356556 127 0 127
0.317666 -0.549434 0.392145 153 0 76
-0.301736 0.081844 -0.438735 153 0 76
0.541462 -0.723395 -0.078001 76 153 0
0.405098 -0.469421 0.305135 0 127 127
-0.525722 -0.174304 -0.011535 153 0 76
0.466982 -0.687186 0.048323 153 0 76
-0.245601 0.037127 -0.497218 0 127 127
-0.416662 0.766577 0.242626 0 127 127
-0.164549 -0.096335 -0.499914 153 0 76
0.348542 -0.594537 0.366376 153 0 76
0.022454 0.617552 0.549510 0 127 127
0.527732 -0.563400 -0.019103 0 127 127
-0.230350 -0.726040 0.500527 76 153 0
0.330669 0.859411 -0.127873 127 0 127
-0.506568 -0.073024 -0.216487 0 127 127
-0.518407 0.112309 -0.205595 0 127 127
0.547336 0.263372 0.099833 0 127 127
0.544803 0.030255 0.053839 0 127 127
0.400751 0.154185 0.384513 0 127 127
-0.365617 -0.483583 -0.393874 0 127 127
-0.469551 -0.573537 0.192699 153 0 76
-0.512327 -0.114642 0.196903 0 127 127
-0.141318 0.270674 -0.100266 153 0 76
0.500983 -0.639972 -0.158171 0 127 127
-0.496811 -0.239282 0.158791 153 0 76
-0.513058 -0.276898 0.077317 153 0 76
0.263276 -0.698467 0.483692 0 127 127
-0.161080 -0.695113 0.377179 153 0 76
-0.468534 -0.303023 -0.280004 0 127 127
-0.010092 0.266966 -0.191074 153 0 76
0.147668 -0.187534 0.499652 153 0 76
-0.372011 0.108852 0.384344 0 127 127
0.496940 -0.421013 -0.188827 0 127 127
-0.303838 0.150853 -0.470487 0 127 127
-0.194773 -0.240741 0.505577 153 0 76
-0.443696 -0.287202 0.311613 0 127 127
0.349851 0.875131 -0.299942 127 0 127
-0.324200 0.183532 0.424469 153 0 76
0.440402 -0.484120 -0.259953 153 0 76
0.475657 -0.599496 -0.223176 0 127 127
-0.277939 0.223041 -0.491173 0 127 127
0.444774 -0.551316 -0.245042 153 0 76
0.472858 -0.352511 0.194506 153 0 76
0.226418 -0.591263 0.451072 153 0 76
0.469237 -0.402111 0.255804 0 127 127
0.490965 -0.666531 -0.102234 153 0 76
-0.436811 0.492695 -0.433204 0 127 127
-0.302154 -0.155115 0.425794 153 0 76
-0.271212 0.250463 -0.031179 153 0 76
0.204080 -0.091094 0.504602 0 127 127
0.151398 -0.163538 -0.500765 153 0 76
0.508626 -0.238859 0.176290 0 127 127
-0.038211 0.831643 -0.045952 127 0 127
-0.425007 0.001321 0.313535 153 0 76
-0.054086 0.855425 -0.239081 127 0 127
0.045845 -0.755737 -0.152799 76 153 0
0.087761 0.086534 -0.523389 153 0 76
-0.476287 -0.695301 0.105713 153 0 76
0.193400 -0.683488 -0.030498 153 0 76
-0.494546 0.121380 0.198681 153 0 76
0.002425 0.268091 -0.564483 0 127 127
0.204558 -0.755737 0.147607 76 153 0
0.375057 -0.722165 -0.156728 76 153 0
-0.130067 0.850794 0.479351 127 0 127
0.246548 -0.542315 -0.470883 0 127 127
0.437474 -0.549458 -0.296147 0 127 127
-0.241656 -0.024414 0.469109 153 0 76
0.012230 0.087843 -0.533381 153 0 76
-0.465624 -0.153560 -0.243974 153 0 76
-0.130204 -0.695301 -0.055978 153 0 76
0.088387 -0.695301 -0.463898 153 0 76
-0.501053 -0.668710 0.058863 153 0 76
0.395305 -0.033779 0.380332 0 127 127
-0.408334 0.697400 -0.261686 0 127 127
-0.247659 0.775628 0.411748 0 127 127
-0.120551 -0.695301 -0.236987 153 0 76
0.495446 -0.594423 0.086662 153 0 76
0.496923 0.044092 -0.233259 0 127 127
0.205742 -0.200972 0.475065 153 0 76
-0.413107 -0.639372 0.290604 153 0 76
0.375437 0.776457 -0.288512 127 0 127
0.557771 0.603991 -0.094830 0 127 127
0.321622 0.076673 0.446093 0 127 127
-0.525661 -0.473278 0.113999 0 127 127
0.325092 0.852525 0.131156 127 0 127
0.425999 0.219147 -0.104322 153 0 76
-0.569383 0.593191 0.112420 0 127 127
-0.488276 -0.059629 0.260218 0 127 127
-0.220241 -0.456137 0.460912 153 0 76
0.360058 -0.095536 0.408672 0 127 127
-0.348673 -0.222799 -0.388693 153 0 76
0.516190 -0.291527 0.013856 153 0 76
0.200664 -0.274059 -0.475989 153 0 76
0.524218 0.347091 -0.284450 0 127 127
-0.495648 0.044311 0.252340 0 127 127
-0.381228 -0.285609 0.353374 153 0 76
-0.523043 -0.436929 -0.141982 0 127 127
0.058315 -0.465590 0.528387 0 127 127
0.366077 0.138614 -0.416544 0 127 127
0.296713 0.214047 -0.473241 0 127 127
0.043286 0.763759 -0.474655 0 127 127
-0.465821 0.823054 0.171354 127 0 127
0.243513 -0.272105 0.481113 0 127 127
0.128605 -0.713938 0.083443 153 0 76
-0.554030 0.408335 -0.261503 0 127 127
0.381434 -0.326528 -0.346257 153 0 76
-0.388876 -0.385188 0.377176 0 127 127
0.470431 -0.600269 0.234009 0 127 127
0.506436 -0.437594 0.162611 0 127 127
0.423198 -0.337306 -0.327480 0 127 127
0.378300 0.129115 0.375969 153 0 76
0.358546 -0.524252 -0.391805 0 127 127
0.517369 0.015707 -0.181189 0 127 127
0.351736 -0.608219 -0.393165 0 127 127
0.508627 0.205561 0.143618 153 0 76
-0.397613 -0.083211 -0.385618 0 127 127
0.026501 -0.695301 -0.106869 153 0 76
0.514970 -0.655105 -0.090377 0 127 127
-0.311791 0.308789 0.495265 0 127 127
-0.381422 0.069677 -0.376148 153 0 76
0.149291 -0.102379 0.502346 153 0 76
-0.333618 0.644173 -0.364013 0 127 127
0.419331 -0.734666 -0.116407 76 153 0
-0.453054 -0.147414 -0.309514 0 127 127
-0.430394 -0.754539 -0.317652 76 153 0
-0.246217 0.206475 -0.473045 153 0 76
0.181530 0.046127 0.519368 0 127 127
-0.026834 0.111171 -0.556453 153 0 76
0.085866 -0.755737 -0.195476 76 153 0
-0.480640 0.050899 -0.285462 0 127 127
-0.159361 -0.237495 -0.496483 153 0 76
-0.263242 -0.755737 -0.131025 76 153 0
0.287704 -0.622473 0.411773 153 0 76
0.416524 0.555972 0.422857 0 127 127
-0.045603 0.855425 -0.085646 127 0 127
0.035678 0.004088 -0.550379 0 127 127
-0.066265 0.483848 -0.605936 0 127 127
0.270082 -0.225764 0.471718 0 127 127
0.514418 -0.167495 0.169118 0 127 127
-0.521811 -0.368678 -0.151470 0 127 127
-0.222070 -0.374726 0.488973 0 127 127
0.033291 -0.695301 -0.399291 153 0 76
0.197029 0.252246 -0.122113 153 0 76
0.334312 -0.695301 -0.225211 153 0 76
0.467492 -0.433949 0.199689 153 0 76
-0.551964 -0.028035 -0.040507 0 127 127
0.321131 -0.410351 -0.397599 153 0 76
-0.285301 0.693559 0.387616 0 127 127
0.235781 -0.695301 -0.070102 153 0 76
-0.331356 -0.426094 -0.422811 0 127 127
0.373331 -0.354690 0.386556 0 127 127
-0.043897 -0.151359 0.542826 0 127 127
-0.515993 -0.538927 0.147558 0 127 127
-0.205540 0.427313 0.575220 0 127 127
-0.454614 -0.443520 -0.289715 153 0 76
0.485297 -0.384080 0.161462 153 0 76
0.295053 -0.087834 -0.460617 0 127 127
-0.456144 0.831072 -0.196426 127 0 127
-0.249099 0.676024 -0.417647 0 127 127
0.119942 0.151857 0.519848 153 0 76
0.075125 0.279975 0.012446 153 0 76
0.212901 0.214863 0.408862 153 0 76
-0.005926 -0.716552 -0.239333 0 127 127
0.435067 0.311636 -0.386031 0 127 127
0.013937 0.831522 0.039844 127 0 127
0.453036 0.615074 0.326290 0 127 127
-0.194033 -0.472477 -0.472832 153 0 76
-0.234649 0.576511 -0.537135 0 127 127
-0.365587 0.456384 0.490076 0 127 127
0.145162 -0.151812 0.502102 153 0 76
0.466254 0.656458 0.129671 0 127 127
0.177152 -0.553926 0.472954 153 0 76
-0.033629 -0.121653 0.545272 0 127 127
0.014672 -0.691229 0.233414 153 0 76
-0.440847 0.452859 -0.433099 0 127 127
0.363193 0.078955 0.414300 0 127 127
0.132157 -0.345369 -0.524804 0 127 127
0.277856 -0.294264 -0.436150 153 0 76
-0.607582 0.511132 0.041284 0 127 127
-0.497895 -0.166615 0.226784 0 127 127
-0.128712 -0.381779 -0.524881 0 127 127
0.395757 0.617577 -0.293095 0 127 127
0.068788 0.273781 -0.155654 153 0 76
0.148683 -0.056390 0.528920 0 127 127
0.292741 -0.755737 -0.038260 76 153 0
-0.387038 -0.200188 -0.352638 153 0 76
0.263131 0.858602 -0.415181 127 0 127
0.508377 -0.073445 -0.135933 153 0 76
0.223023 -0.110300 0.471492 153 0 76
-0.405363 -0.172709 -0.370148 0 127 127
0.483703 -0.184900 0.184321 153 0 76
-0.063230 -0.716874 0.240079 0 127 127
-0.151196 0.247419 0.248424 153 0 76
0.271858 0.578215 -0.517782 0 127 127
-0.496017 -0.620919 -0.112200 153 0 76
0.416584 0.437880 0.445479 0 127 127
0.027784 0.169173 -0.534329 153 0 76
0.528292 0.014333 -0.154689 0 127 127
-0.346015 0.814006 0.357710 127 0 127
-0.013034 0.875191 -0.334079 127 0 127
-0.336332 -0.724742 -0.264986 76 153 0
0.017513 0.228816 -0.354274 153 0 76
-0.321123 0.845023 0.158430 127 0 127
0.145097 -0.394935 -0.518732 0 127 127
-0.494529 -0.067233 -0.246105 0 127 127
0.092887 0.007951 -0.519819 153 0 76
-0.506104 -0.682826 -0.209571 76 153 0
0.009277 0.466042 -0.613757 0 127 127
-0.139049 0.324967 0.574945 0 127 127
0.416191 0.219514 0.001144 153 0 76
-0.012286 -0.164889 0.522970 153 0 76
0.421635 0.450317 -0.443519 0 127 127
-0.120320 -0.695301 -0.205554 0 127 127
-0.547181 -0.079216 0.060807 0 127 127
-0.320436 -0.321786 -0.405803 153 0 76
0.188268 -0.755737 -0.105504 76 153 0
-0.054472 0.466981 0.607017 0 127 127
0.201734 -0.718010 0.194082 0 127 127
-0.499702 0.617665 0.007458 0 127 127
0.462609 -0.532722 0.259339 0 127 127
-0.395562 -0.591809 0.316323 153 0 76
-0.399337 -0.695301 -0.165837 153 0 76
-0.037466 -0.710159 0.020620 153 0 76
0.358157 0.212796 -0.426036 0 127 127
-0.558320 -0.709193 -0.010492 76 153 0
-0.313598 -0.060530 0.421367 153 0 76
-0.544590 0.121491 0.136648 0 127 127
0.391371 -0.683641 -0.051812 153 0 76
0.450410 -0.023634 0.309126 0 127 127
0.528037 -0.607580 -0.004420 0 127 127
-0.134959 -0.572944 -0.493329 153 0 76
-0.134687 -0.755737 -0.107683 76 153 0
0.522815 -0.656449 -0.030415 0 127 127
0.286744 -0.502275 0.418043 153 0 76
-0.360730 0.147339 0.394772 153 0 76
0.328255 0.282369 0.457863 0 127 127
0.167336 0.152722 -0.506666 153 0 76
0.402785 -0.722099 -0.035788 153 0 76
0.378683 0.607155 -0.421879 0 127 127
-0.532933 0.190018 0.176231 0 127 127
0.087071 -0.431117 0.502700 153 0 76
-0.347492 -0.720098 0.037553 76 153 0
-0.152382 -0.034408 -0.533003 0 127 127
-0.274563 -0.407953 -0.437036 153 0 76
-0.053991 0.717227 -0.481967 0 127 127
-0.209642 0.238118 -0.236817 153 0 76
-0.529957 -0.280785 -0.136941 0 127 127
0.107626 -0.755737 -0.077094 76 153 0
-0.350094 0.728773 0.348317 0 127 127
-0.339001 -0.255423 -0.394613 153 0 76
-0.393611 0.862841 0.114255 127 0 127
0.592081 0.550788 -0.024853 0 127 127
0.541628 0.081392 0.092267 0 127 127
-0.402186 -0.244055 -0.370008 0 127 127
0.532548 0.286826 -0.192986 0 127 127
0.412663 -0.251691 -0.310049 153 0 76
-0.273477 -0.342482 -0.440883 153 0 76
0.410665 -0.306498 -0.345662 0 127 127
-0.188595 0.067790 -0.522043 0 127 127
-0.422438 -0.590186 0.281395 153 0 76
-0.557106 0.068689 -0.028519 0 127 127
0.221547 -0.262752 0.466076 0 127 127
0.403910 -0.677330 -0.249451 153 0 76
-0.089490 -0.356625 -0.507452 153 0 76
0.102700 -0.237075 -0.509500 153 0 76
0.361954 -0.168749 0.403847 0 127 127
0.092678 -0.335014 0.528673 0 127 127
-0.020358 0.146077 -0.558592 0 127 127
0.446365 0.074911 -0.322021 0 127 127
-0.328012 -0.289171 0.399782 153 0 76
0.080471 -0.755737 -0.022732 76 153 0
0.050670 0.219514 0.399595 153 0 76
0.240274 -0.755737 0.223246 76 153 0
0.291692 -0.623084 -0.438555 0 127 127
-0.517213 -0.172432 0.074984 153 0 76
0.484589 -0.302397 -0.229967 0 127 127
-0.386731 0.617566 0.351227 0 127 127
-0.009479 -0.208266 0.545260 0 127 127
-0.179555 -0.347439 0.507662 0 127 127
-0.583473 0.525984 0.169119 0 127 127
0.143231 0.219514 0.390823 153 0 76
-0.220294 -0.703032 -0.507032 76 153 0
0.421309 -0.434575 0.286098 0 127 127
0.104322 -0.553796 0.519080 153 0 76
-0.315932 -0.743400 0.319286 0 127 127
0.007265 -0.014062 -0.553451 0 127 127
-0.147244 -0.695301 -0.142770 153 0 76
0.072161 -0.553066 0.523341 0 127 127
-0.326308 0.875156 -0.249805 127 0 127
0.178210 -0.104694 -0.491986 153 0 76
0.169404 -0.695301 -0.334817 153 0 76
-0.530229 0.050446 -0.171149 0 127 127
-0.515882 -0.479428 -0.000901 153 0 76
-0.261349 0.235511 -0.241894 153 0 76
0.417729 0.764147 0.225335 0 127 127
-0.323273 0.617562 -0.421248 0 127 127
-0.323944 -0.721038 0.197533 153 0 76
-0.482182 -0.087908 -0.210267 153 0 76
-0.039437 0.238118 -0.339167 153 0 76
0.169446 -0.695301 -0.209845 153 0 76
-0.174499 0.095220 0.527256 0 127 127
-0.400762 -0.317412 -0.367463 0 127 127
-0.432725 -0.269330 -0.288948 153 0 76
-0.206614 -0.251823 -0.501944 0 127 127
-0.216801 -0.266859 0.469820 153 0 76
-0.177887 0.864976 0.219997 127 0 127
0.097933 0.864038 0.376080 127 0 127
-0.493942 0.643928 -0.024128 0 127 127
0.089498 -0.210670 -0.512211 153 0 76
-0.458427 0.171488 0.280191 153 0 76
0.478744 0.133888 -0.228428 153 0 76
-0.472565 -0.500635 0.256056 0 127 127
0.554139 0.237077 0.040797 0 127 127
-0.167585 -0.755737 -0.263913 76 153 0
0.240327 0.835761 -0.321907 127 0 127
0.440631 0.465635 0.421123 0 127 127
-0.308794 -0.695301 -0.177577 0 127 127
0.243260 0.081629 0.470697 153 0 76
0.485276 -0.437553 -0.158119 153 0 76
0.262486 -0.042244 -0.459545 153 0 76
-0.374990 -0.670221 -0.380212 0 127 127
0.354780 0.804756 -0.343365 127 0 127
0.274990 -0.226126 -0.469645 0 127 127
0.282887 -0.381959 -0.456411 0 127 127
-0.552663 -0.725667 0.043149 76 153 0
0.355078 0.168580 -0.398203 153 0 76
0.369494 0.353703 0.466731 0 127 127
-0.129331 -0.695301 -0.298173 153 0 76
0.103306 -0.032847 0.538405 0 127 127
-0.198357 0.855425 0.006749 127 0 127
-0.011162 -0.755737 0.210015 76 153 0
-0.517918 -0.204902 -0.062255 153 0 76
-0.154866 -0.442973 -0.490221 153 0 76
-0.138218 -0.206756 -0.506456 153 0 76
0.367970 -0.695301 0.224153 153 0 76
-0.055912 -0.473962 -0.507550 153 0 76
0.037985 -0.171942 0.541881 0 127 127
-0.493214 0.099006 -0.201470 153 0 76
-0.454437 -0.662161 -0.222442 153 0 76
-0.167256 0.855425 -0.182420 127 0 127
-0.548416 0.061361 -0.092469 0 127 127
-0.371604 -0.105615 0.374783 0 127 127
-0.532463 0.116236 0.039922 153 0 76
0.109355 -0.377107 0.524927 0 127 127
0.186282 0.870629 -0.234161 127 0 127
-0.348999 -0.505191 -0.405632 0 127 127
-0.462591 -0.032587 0.261132 153 0 76
0.041982 0.855425 0.219785 127 0 127
-0.380192 -0.014309 -0.372712 153 0 76
-0.358929 0.480486 -0.495307 0 127 127
-0.312230 0.232547 -0.173112 153 0 76
0.221121 -0.619077 -0.453876 153 0 76
-0.100548 -0.351500 0.527994 0 127 127
-0.487865 -0.522172 -0.218774 0 127 127
0.366195 -0.658221 -0.379769 153 0 76
0.517939 -0.218031 0.021135 153 0 76
0.006271 -0.162033 -0.524960 0 127 127
-0.334679 0.617568 0.392880 0 127 127
-0.122748 -0.604686 0.492225 153 0 76
0.512251 -0.177815 -0.077306 153 0 76
-0.185076 0.622511 -0.459200 0 127 127
-0.238858 -0.390567 -0.483103 0 127 127
0.445846 -0.412104 -0.255740 153 0 76
-0.216573 0.250849 -0.184145 153 0 76
0.433121 -0.162973 -0.325008 0 127 127
0.253365 -0.081201 -0.486289 0 127 127
-0.494352 -0.596172 0.130056 153 0 76
-0.155928 -0.161980 -0.526490 0 127 127
-0.081092 0.232410 0.370335 153 0 76
-0.025440 -0.755737 -0.332424 76 153 0
0.336098 -0.678580 -0.201709 153 0 76
0.255987 -0.755737 -0.078519 76 153 0
-0.445810 -0.246316 0.271567 153 0 76
0.459059 -0.081274 0.253705 153 0 76
-0.290989 0.415052 0.539258 0 127 127
0.052834 0.855425 -0.195664 127 0 127
0.083519 0.247419 -0.293414 153 0 76
-0.612582 0.438848 0.047139 0 127 127
-0.269655 -0.722516 0.324882 0 127 127
0.421317 0.875130 -0.189584 127 0 127
-0.120417 -0.695301 0.280406 153 0 76
0.470750 -0.372208 -0.199423 153 0 76
-0.007751 -0.108567 -0.527351 0 127 127
-0.425094 -0.311038 0.334425 0 127 127
-0.129789 -0.002080 0.537017 0 127 127
0.536221 -0.343132 0.014544 0 127 127
0.459620 -0.305637 0.230939 153 0 76
-0.090937 -0.501498 0.500215 0 127 127
0.351123 -0.452201 -0.372659 153 0 76
-0.352758 -0.672045 -0.313956 153 0 76
0.448805 0.205561 -0.227588 153 0 76
0.535960 -0.035914 -0.104203 0 127 127
0.323244 0.617554 -0.435923 0 127 127
-0.293851 -0.755802 -0.391758 76 153 0
0.287554 -0.357591 0.424082 153 0 76
0.305234 -0.673869 -0.397666 153 0 76
-0.050516 0.201985 -0.533162 153 0 76
0.384195 -0.323424 0.341135 153 0 76
0.247184 -0.577678 0.467512 0 127 127
0.121475 -0.257229 0.527747 0 127 127
-0.466734 0.075518 0.261449 153 0 76
0.211037 -0.012657 0.504821 0 127 127
-0.421406 0.582636 -0.410586 0 127 127
-0.462260 -0.640454 0.203915 153 0 76
-0.307190 0.642747 -0.385356 0 127 127
-0.108582 -0.385725 0.502156 0 127 127
-0.584309 0.584827 -0.032214 0 127 127
-0.096859 0.581719 0.573187 0 127 127
0.421122 -0.270514 0.332484 0 127 127
0.238439 -0.088199 0.465980 153 0 76
0.157030 0.270674 0.097027 153 0 76
0.293487 0.358432 -0.526379 0 127 127
-0.254603 0.178221 0.497357 0 127 127
-0.510121 0.030743 -0.217813 0 127 127
-0.484520 -0.392371 0.237528 0 127 127
0.479919 0.809109 0.102060 127 0 127
0.521967 -0.167784 -0.006314 153 0 76
-0.294305 0.244938 0.138522 153 0 76
-0.246469 -0.311296 -0.483084 0 127 127
-0.473898 -0.430822 0.195826 153 0 76
-0.483296 -0.549373 0.225497 0 127 127
0.534232 -0.096257 -0.100445 0 127 127
-0.273806 -0.719396 -0.181536 0 127 127
0.088644 -0.695486 0.355881 153 0 76
0.525873 -0.041111 0.010375 153 0 76
0.142465 -0.739810 0.415253 0 127 127
0.487569 -0.132305 0.237297 0 127 127
-0.269067 -0.144007 -0.453404 0 127 127
0.544494 -0.017446 -0.044553 0 127 127
-0.320809 -0.719325 -0.059777 0 127 127
-0.263106 -0.405613 0.444225 0 127 127
-0.143377 -0.418667 0.494231 153 0 76
-0.286205 -0.289668 0.462027 0 127 127
0.268124 0.875044 0.162791 127 0 127
-0.310951 -0.197566 -0.418800 153 0 76
-0.520553 -0.603915 0.116241 0 127 127
-0.194322 0.252070 0.163058 153 0 76
-0.286830 0.554709 0.523056 0 127 127
-0.475671 -0.116027 -0.223300 153 0 76
-0.294452 0.031190 0.470470 0 127 127
-0.300620 -0.755737 0.080175 76 153 0
-0.075374 0.855425 -0.123897 127 0 127
-0.267471 -0.206076 -0.451771 153 0 76
-0.011860 0.617556 0.543799 0 127 127
-0.332889 -0.459071 -0.389927 153 0 76
0.302794 -0.684161 -0.024007 153 0 76
0.142838 0.528255 0.585212 0 127 127
0.197583 0.050615 -0.490101 153 0 76
-0.374874 0.007696 0.407679 0 127 127
-0.152590 -0.755805 0.488713 0 127 127
0.346590 -0.042866 0.393272 153 0 76
0.226554 0.219514 -0.352887 153 0 76
0.413321 -0.153005 -0.351410 153 0 76
0.343541 0.022583 0.398624 153 0 76
0.476371 0.044404 0.223905 153 0 76
-0.504880 -0.695301 -0.016037 153 0 76
-0.004220 0.617919 0.496204 0 127 127
-0.094347 -0.478233 -0.502333 153 0 76
0.442014 0.238794 0.335813 0 127 127
-0.126047 -0.339934 0.525063 0 127 127
-0.377244 -0.755803 -0.325660 76 153 0
0.032221 0.857409 -0.250610 127 0 127
-0.359688 0.862432 0.008885 127 0 127
-0.470161 -0.680851 -0.025048 153 0 76
0.100838 0.073437 -0.544356 0 127 127
-0.520181 -0.072929 -0.081995 153 0 76
0.356059 0.857610 0.187224 127 0 127
-0.266432 -0.695301 0.014826 153 0 76
0.133894 0.115464 0.516671 153 0 76
0.497299 -0.651402 0.056644 153 0 76
0.003321 0.060080 0.531821 153 0 76
0.439547 0.256750 -0.341815 0 127 127
0.109808 -0.719468 -0.307267 0 127 127
0.281512 -0.755737 -0.092980 76 153 0
0.306987 0.875126 -0.357944 127 0 127
-0.591229 0.416272 0.172048 0 127 127
0.017729 -0.611127 -0.530078 0 127 127
0.247538 -0.442892 -0.474404 0 127 127
-0.009195 0.577680 -0.588438 0 127 127
-0.314182 0.843024 0.382136 127 0 127
0.251597 -0.634124 -0.465163 0 127 127
-0.020337 -0.693257 0.301002 153 0 76
-0.491328 -0.008841 0.194023 153 0 76
0.165764 -0.580610 -0.502831 0 127 127
-0.428319 -0.473456 0.320478 0 127 127
-0.575869 0.592060 -0.069116 0 127 127
0.394229 -0.381046 -0.362610 0 127 127
-0.177017 -0.721323 0.342580 76 153 0
-0.087969 0.219514 0.415087 153 0 76
0.500895 -0.456212 0.083948 153 0 76
-0.424337 -0.738746 -0.133077 0 127 127
0.102829 0.206271 0.520479 153 0 76
-0.522746 0.323484 0.282566 0 127 127
0.132162 -0.688046 0.119098 153 0 76
-0.024933 -0.631800 -0.529333 0 127 127
0.001823 0.617298 -0.564954 0 127 127
-0.103715 -0.755737 -0.146463 76 153 0
-0.538789 -0.456236 -0.020759 0 127 127
0.506147 -0.459240 -0.044922 0 127 127
0.078694 -0.695301 -0.233408 153 0 76
-0.219585 0.261372 0.064664 153 0 76
0.273776 0.176192 0.459228 153 0 76
0.452682 -0.752521 0.007622 76 153 0
0.519449 -0.410681 0.123042 0 127 127
0.249486 0.234052 0.249541 153 0 76
0.000142 -0.080269 -0.551950 0 127 127
0.520997 -0.050049 0.044914 153 0 76
0.333098 -0.632325 0.376487 153 0 76
0.506727 0.413211 0.334177 0 127 127
0.490063 -0.727558 -0.245172 76 153 0
0.139229 -0.695301 0.338940 153 0 76
0.172333 -0.582093 0.473837 153 0 76
-0.023470 -0.561110 -0.532130 0 127 127
0.505391 -0.574985 -0.153731 0 127 127
0.539259 -0.203792 0.030458 0 127 127
0.233006 -0.673544 -0.344528 153 0 76
-0.468425 0.180776 -0.309172 0 127 127
-0.193972 -0.286053 0.504117 0 127 127
-0.467628 -0.658749 -0.190920 153 0 76
0.259438 -0.682993 0.430676 153 0 76
-0.457504 -0.188055 -0.301277 0 127 127
-0.503050 0.191083 -0.250188 0 127 127
-0.076469 0.865594 -0.277254 127 0 127
0.282755 0.867668 0.052923 127 0 127
0.053739 0.231378 0.347021 153 0 76
0.282376 -0.630747 0.443640 0 127 127
0.289243 0.214863 0.371636 153 0 76
0.291610 -0.721874 -0.274083 0 127 127
-0.376529 -0.677264 -0.148747 153 0 76
-0.507520 -0.342830 0.100930 153 0 76
-0.033595 -0.578257 -0.506646 153 0 76
-0.067716 -0.198433 0.537956 0 127 127
-0.167471 0.855425 0.116373 127 0 127
0.371540 -0.682027 -0.099326 153 0 76
-0.334932 0.241869 -0.050224 153 0 76
0.403127 0.817112 -0.280357 127 0 127
0.341136 -0.695301 -0.132716 153 0 76
0.236789 0.469949 -0.560608 0 127 127
-0.062043 0.847957 -0.350475 127 0 127
0.070575 -0.755737 0.022971 76 153 0
0.318066 0.244974 0.039448 153 0 76
0.522686 -0.279977 -0.136736 0 127 127
-0.191498 -0.755737 0.025029 76 153 0
-0.433792 -0.058341 -0.300216 153 0 76
-0.545197 -0.689164 -0.079361 0 127 127
-0.345303 -0.404994 0.381182 153 0 76
0.513865 0.126958 0.198557 0 127 127
0.429621 0.150557 0.346670 0 127 127
0.234987 -0.192651 0.463281 153 0 76
0.559337 0.423408 -0.233859 0 127 127
-0.055150 0.279975 -0.057770 153 0 76
0.175044 -0.671965 -0.385928 153 0 76
0.447247 -0.320847 0.295416 0 127 127
0.412633 0.203650 -0.373704 0 127 127
0.413692 -0.487207 -0.330876 0 127 127
0.513560 0.597742 -0.249699 0 127 127
0.161918 0.752166 0.464047 0 127 127
-0.142336 -0.716517 -0.191499 153 0 76
-0.477104 0.169550 0.245386 153 0 76
0.394433 -0.592951 -0.313332 153 0 76
-0.331703 -0.643383 0.410831 0 127 127
-0.540696 0.276414 -0.173083 0 127 127
0.323182 0.558507 -0.495061 0 127 127
0.229808 -0.716541 0.036770 0 127 127
0.199214 0.003606 0.485857 0 127 127
-0.247872 -0.617765 0.443077 153 0 76
0.522333 -0.371150 0.112195 0 127 127
-0.107279 -0.141487 0.534845 153 0 76
0.273028 0.726916 -0.402504 0 127 127
0.273562 -0.303108 0.465487 0 127 127
-0.045631 -0.695301 -0.473716 153 0 76
-0.081122 -0.713414 0.116326 0 127 127
-0.363444 -0.301198 0.372040 153 0 76
-0.522596 -0.274687 -0.007190 153 0 76
-0.370973 0.207548 -0.378699 153 0 76
0.273854 -0.026774 0.449825 153 0 76
-0.430337 -0.274740 -0.331480 0 127 127
-0.321838 -0.615368 -0.421401 0 127 127
-0.433945 0.334358 0.410538 0 127 127
-0.487003 0.851371 0.101234 127 0 127
0.141129 0.235018 0.336281 153 0 76
-0.413578 0.027416 0.369739 0 127 127
-0.535307 -0.245063 0.104593 0 127 127
-0.008996 0.287657 -0.081417 153 0 76
0.523723 0.165049 0.084401 153 0 76
0.161168 -0.613056 0.477237 153 0 76
0.243922 -0.153378 -0.487347 0 127 127
-0.129343 -0.200620 -0.531472 0 127 127
-0.320349 0.090495 0.423140 153 0 76
-0.150923 -0.265740 0.522752 0 127 127
-0.321133 -0.538378 -0.425486 0 127 127
0.259387 0.222429 0.329808 153 0 76
-0.065466 -0.695301 -0.298951 153 0 76
-0.070269 0.797615 -0.487203 127 0 127
-0.280428 -0.695301 -0.076406 153 0 76
-0.146693 0.855425 -0.025167 127 0 127
-0.142866 -0.640798 -0.487372 153 0 76
0.509504 0.329209 -0.301292 0 127 127
0.496728 -0.755803 -0.022822 76 153 0
-0.346889 0.545942 0.486383 0 127 127
-0.108830 0.031622 -0.542728 0 127 127
0.165737 -0.695301 0.470458 153 0 76
-0.072248 -0.286256 -0.535834 0 127 127
-0.400974 -0.565685 0.350582 0 127 127
-0.437466 -0.603676 0.300745 0 127 127
0.345161 -0.348914 -0.381989 153 0 76
-0.216303 0.562684 0.549218 0 127 127
-0.274778 -0.672337 -0.315162 153 0 76
0.153326 -0.695301 -0.171582 153 0 76
0.162747 -0.755737 -0.202468 76 153 0
-0.220356 -0.603117 -0.456764 153 0 76
0.603325 0.428158 -0.059991 0 127 127
0.496501 -0.527379 0.097414 153 0 76
-0.394728 0.650280 0.288283 0 127 127
0.511281 -0.051741 0.118240 0 127 127
-0.112146 0.228816 -0.380642 153 0 76
-0.312615 -0.695955 -0.455962 76 153 0
0.334582 0.835957 -0.362570 127 0 127
-0.341722 -0.755804 0.373115 76 153 0
-0.419048 0.789270 -0.255339 127 0 127
0.284431 0.452033 -0.541796 0 127 127
-0.100256 -0.184057 0.534201 0 127 127
-0.322328 0.219148 -0.459443 0 127 127
-0.287266 -0.462228 0.453269 0 127 127
0.393937 0.182080 0.358769 0 127 127
0.298229 0.795580 0.384740 127 0 127
-0.064671 0.875196 -0.316931 127 0 127
0.516667 -0.508705 0.116747 0 127 127
0.031310 0.855425 -0.149273 127 0 127
-0.021038 0.855425 0.215573 127 0 127
0.429045 0.023661 -0.341518 0 127 127
-0.045826 -0.142232 -0.521098 153 0 76
-0.329156 -0.023892 -0.443015 0 127 127
-0.158104 -0.148908 0.524396 0 127 127
-0.453029 -0.107805 -0.272179 153 0 76
0.528535 -0.117827 -0.137683 153 0 76
0.204279 -0.504942 0.463654 153 0 76
-0.145414 0.585310 -0.566727 0 127 127
0.328795 0.000967 -0.438814 153 0 76
0.065606 -0.671951 -0.371952 153 0 76
0.387220 -0.473166 -0.366217 0 127 127
0.148360 0.721520 -0.462788 0 127 127
0.484205 -0.255738 0.233637 0 127 127
-0.389870 0.380326 -0.466302 0 127 127
-0.420806 0.678448 -0.245357 0 127 127
0.236315 0.868728 -0.171836 127 0 127
0.084081 -0.340628 -0.508137 153 0 76
0.520918 0.150154 -0.103247 153 0 76
-0.005859 0.170181 -0.561389 0 127 127
-0.055047 -0.719736 -0.331748 0 127 127
0.133537 -0.362184 -0.500310 153 0 76
-0.588447 0.338859 0.103248 0 127 127
0.085993 -0.573498 0.497596 153 0 76
0.166021 0.802579 -0.464057 127 0 127
-0.602675 0.506913 -0.084799 0 127 127
-0.176780 -0.749409 0.414859 76 153 0
0.436813 -0.612763 -0.293210 0 127 127
-0.079775 -0.668815 -0.450206 153 0 76
-0.426604 -0.695301 0.253564 153 0 76
0.478187 -0.132026 -0.261685 0 127 127
0.001007 -0.207875 -0.547135 0 127 127
0.496760 -0.318553 0.140041 0 127 127
0.143582 -0.136363 -0.505077 153 0 76
0.036483 -0.112937 -0.545962 0 127 127
-0.549561 -0.231486 -0.001832 0 127 127
-0.602504 0.384032 0.085057 0 127 127
0.342109 -0.426451 0.407210 0 127 127
-0.498716 0.399914 0.351216 0 127 127
-0.018376 -0.695301 0.446092 153 0 76
-0.048016 0.247419 -0.274249 153 0 76
-0.400139 0.617562 -0.348175 0 127 127
-0.012398 -0.012983 0.528551 153 0 76
-0.452032 -0.551131 -0.286624 0 127 127
0.225613 -0.755737 -0.128305 76 153 0
0.175182 0.635125 0.458553 0 127 127
-0.211185 0.758446 0.435149 0 127 127
0.280628 0.617554 -0.468207 0 127 127
0.497945 0.126108 -0.181331 153 0 76
-0.610511 0.463721 -0.060629 0 127 127
-0.456125 -0.294732 -0.253434 153 0 76
-0.305189 -0.718787 0.049828 0 127 127
0.519782 -0.216121 -0.009381 153 0 76
0.404737 -0.001901 -0.335365 153 0 76
-0.350334 0.066183 -0.400723 153 0 76
-0.508542 0.139010 -0.231958 0 127 127
0.492386 0.807963 0.007364 127 0 127
0.353787 -0.695301 -0.178869 153 0 76
-0.108760 -0.695301 -0.458520 153 0 76
-0.131153 -0.695301 0.463956 153 0 76
0.219904 -0.690046 0.169675 153 0 76
-0.500593 -0.371975 0.200670 0 127 127
-0.426385 0.875143 0.119678 127 0 127
0.508427 -0.513336 0.010760 0 127 127
0.171269 -0.755556 0.498158 76 153 0
0.489133 0.560242 0.326820 0 127 127
-0.405721 -0.606436 -0.303915 153 0 76
0.122359 -0.419219 0.498492 153 0 76
-0.252997 -0.626528 -0.442318 153 0 76
-0.080908 -0.695301 -0.333510 153 0 76
0.225730 0.272045 0.509991 0 127 127
0.510373 0.161093 0.152954 153 0 76
0.318846 0.833300 -0.156416 127 0 127
-0.525382 -0.523009 0.102207 0 127 127
-0.289952 -0.275769 -0.431313 153 0 76
0.394299 -0.583479 0.348663 0 127 127
0.608174 0.425087 0.020441 0 127 127
-0.082220 -0.473434 0.502396 153 0 76
-0.357708 0.094984 0.424870 0 127 127
0.504724 -0.584341 0.019011 153 0 76
-0.081069 -0.019957 -0.520963 153 0 76
0.398786 -0.122478 -0.372183 153 0 76
-0.260067 0.738703 -0.425371 0 127 127
-0.184595 0.875143 0.396286 127 0 127
-0.470373 -0.297188 0.217091 153 0 76
-0.239630 -0.164819 -0.491708 0 127 127
-0.111248 -0.558460 -0.497152 153 0 76
-0.354614 -0.670525 0.396596 76 153 0
0.344313 -0.695301 -0.079998 153 0 76
0.470103 -0.661403 0.171676 153 0 76
0.567700 0.530172 0.186881 0 127 127
-0.593882 0.523470 -0.124623 0 127 127
0.073879 0.855425 0.083595 127 0 127
0.400520 0.752065 -0.283754 0 127 127
0.249037 -0.391440 -0.451312 0 127 127
-0.321569 0.229650 -0.226956 153 0 76
-0.085682 -0.721716 0.387499 76 153 0
-0.412135 -0.291937 0.312716 153 0 76
-0.499872 -0.680827 -0.066152 153 0 76
-0.124104 0.855425 -0.066760 127 0 127
-0.156666 -0.598622 -0.508923 0 127 127
0.246247 0.162117 0.497147 0 127 127
0.427286 -0.312980 0.321903 0 127 127
0.235758 -0.732578 0.361025 76 153 0
-0.173486 -0.487389 0.504644 0 127 127
-0.405220 -0.684558 0.081529 153 0 76
0.508246 -0.385342 -0.164938 0 127 127
-0.068907 -0.507534 0.526412 0 127 127
0.121506 -0.695301 0.451907 153 0 76
0.467262 -0.507039 -0.194977 153 0 76
0.161599 0.247419 0.242725 153 0 76
-0.102167 -0.411734 -0.527272 0 127 127
0.320967 0.125951 -0.422415 153 0 76
-0.121128 0.074865 0.540992 0 127 127
-0.497544 0.325902 -0.324541 0 127 127
0.180060 0.553509 0.564706 0 127 127
0.512677 -0.666226 0.102976 0 127 127
-0.089304 0.683088 0.471598 0 127 127
-0.062574 0.855425 0.113578 127 0 127
-0.490943 0.182365 0.276875 0 127 127
-0.280336 0.875125 0.383972 127 0 127
0.325776 0.383201 0.508714 0 127 127
-0.050589 0.261149 -0.229425 153 0 76
0.130165 -0.610481 0.490181 0 127 127
-0.536033 -0.089185 0.142101 0 127 127
-0.177859 -0.572179 -0.475590 0 127 127
0.054267 -0.723671 0.418778 76 153 0
0.102618 0.855425 -0.036324 127 0 127
0.218459 0.599816 0.525935 0 127 127
-0.138590 -0.438571 -0.521488 0 127 127
0.330000 -0.720534 -0.134296 0 127 127
-0.528665 0.467902 0.315768 0 127 127
-0.566200 0.617548 0.004804 0 127 127
0.416287 0.214863 -0.195837 153 0 76
0.385625 -0.339599 -0.376309 0 127 127
-0.313417 -0.192894 0.445602 0 127 127
-0.434636 -0.554051 0.267665 153 0 76
-0.021122 0.698189 -0.482629 0 127 127
0.532365 0.403231 0.292602 0 127 127
0.168306 -0.639425 -0.474948 153 0 76
0.249159 -0.671642 -0.405699 153 0 76
0.160803 0.839202 -0.370358 127 0 127
0.320906 0.190980 0.423745 153 0 76
-0.121029 0.189494 -0.546938 0 127 127
-0.459032 0.448720 0.408013 0 127 127
-0.366899 -0.720934 0.087506 76 153 0
-0.159217 -0.512650 -0.485665 0 127 127
-0.012139 0.247419 -0.284224 153 0 76
0.248672 -0.152923 -0.460893 153 0 76
-0.017451 0.190154 0.558888 0 127 127
-0.059147 -0.349257 -0.511718 153 0 76
-0.485508 0.758064 0.115269 0 127 127
-0.445584 -0.372345 0.304044 0 127 127
-0.376535 0.854849 0.321419 127 0 127
0.053667 -0.755806 0.515544 76 153 0
-0.320103 -0.686247 0.122771 153 0 76
0.503707 -0.208276 -0.133680 153 0 76
0.407168 -0.212126 0.354172 0 127 127
-0.390686 0.734776 -0.303220 0 127 127
0.152082 0.427375 0.593381 0 127 127
0.449819 0.791223 0.177330 0 127 127
-0.384307 -0.459483 0.378673 0 127 127
0.494370 -0.515952 -0.118509 153 0 76
-0.555116 0.322924 0.203911 0 127 127
0.437074 -0.114470 -0.322766 0 127 127
-0.168069 0.855425 0.158421 127 0 127
0.331297 -0.517692 -0.384856 153 0 76
0.581828 0.315346 -0.030406 0 127 127
-0.474940 0.117020 0.295147 153 0 76
-0.375922 -0.427291 0.351788 153 0 76
0.093631 -0.066820 0.515256 153 0 76
-0.486282 0.806979 -0.111101 127 0 127
0.543608 0.071891 -0.076280 0 127 127
0.172952 -0.499213 -0.503072 0 127 127
0.493892 -0.324891 -0.148071 153 0 76
-0.423340 0.228571 -0.370796 0 127 127
0.093768 0.617575 0.490397 0 127 127
0.125583 -0.449923 -0.521818 0 127 127
0.245789 0.212078 -0.440763 153 0 76
0.226557 0.047514 0.500772 0 127 127
0.000323 0.144621 0.558501 153 0 76
0.523355 -0.072515 0.020721 153 0 76
-0.173611 -0.337531 -0.512226 0 127 127
0.508145 -0.258271 -0.177309 0 127 127
0.274251 -0.755803 -0.408234 76 153 0
0.488486 0.185222 -0.209808 153 0 76
-0.529890 -0.015523 -0.165671 0 127 127
-0.256149 -0.638842 0.464416 0 127 127
0.334963 -0.346096 0.388233 153 0 76
0.327299 -0.661362 0.407760 153 0 76
-0.371018 -0.722392 0.200774 76 153 0
-0.573906 0.309070 -0.123024 0 127 127
-0.477646 -0.277055 0.265128 0 127 127
-0.161063 -0.695301 -0.448475 153 0 76
-0.117399 -0.755737 0.020227 76 153 0
-0.180039 0.875144 -0.396306 127 0 127
0.329018 -0.030693 0.435475 0 127 127
0.528368 -0.159876 -0.127189 0 127 127
0.483296 -0.552490 0.207509 153 0 76
-0.507150 -0.480931 -0.066804 153 0 76
0.503617 -0.210474 -0.192804 0 127 127
0.083396 0.577117 -0.577983 0 127 127
-0.466841 0.216803 -0.035813 153 0 76
0.197926 0.249745 -0.214618 153 0 76
0.390423 -0.694829 0.387121 76 153 0
0.178120 -0.442905 0.476942 153 0 76
-0.391570 0.219342 -0.200320 153 0 76
-0.492325 -0.153101 0.177846 0 127 127
-0.289313 0.181220 0.451132 153 0 76
0.034901 -0.686400 0.080810 153 0 76
0.061481 0.214863 0.444160 153 0 76
-0.502347 -0.434201 0.114659 153 0 76
-0.176218 0.838553 0.311107 127 0 127
-0.505578 -0.383922 -0.105890 153 0 76
0.347997 -0.259256 -0.412100 0 127 127
-0.547310 -0.147425 0.040740 0 127 127
-0.507328 -0.620627 0.024655 153 0 76
-0.121726 -0.269162 -0.506430 153 0 76
0.007123 -0.712109 0.098537 153 0 76
-0.479818 0.762596 -0.029926 0 127 127
0.525600 -0.511174 -0.049910 0 127 127
0.140501 0.864038 0.354217 127 0 127
0.079403 -0.670095 -0.520661 0 127 127
-0.177504 -0.340790 -0.484884 153 0 76
0.225895 0.247419 -0.188145 153 0 76
-0.457988 0.499351 -0.404073 0 127 127
0.479636 -0.343979 -0.180666 153 0 76
-0.000334 -0.713135 0.131381 0 127 127
-0.230855 0.864038 0.294656 127 0 127
0.457989 -0.755653 -0.265132 76 153 0
0.030751 -0.695301 -0.312865 153 0 76
0.111072 0.278040 -0.553742 0 127 127
-0.288392 -0.722379 0.305219 0 127 127
0.151965 -0.684312 0.000538 153 0 76
-0.254243 -0.755737 0.177584 76 153 0
0.497893 0.160818 0.240348 0 127 127
0.030576 0.832326 0.069583 127 0 127
-0.521384 -0.235337 0.025701 153 0 76
-0.591079 0.538639 0.116311 0 127 127
-0.089513 -0.707969 0.543644 76 153 0
0.009552 -0.695301 -0.428566 153 0 76
0.245234 -0.683716 -0.487120 76 153 0
0.083430 0.241108 -0.331935 153 0 76
0.133011 -0.692300 0.251106 153 0 76
0.538779 -0.184194 -0.041299 0 127 127
-0.093263 0.282264 -0.073677 153 0 76
0.324411 -0.268317 -0.429780 0 127 127
