ply
format ascii 1.0
element vertex 1275
property float x
property float y
property float z
property uchar red
property uchar green
property uchar blue
end_header
0.266933 -0.416388 -0.076009 76 153 0
-0.137563 0.396868 0.072659 153 0 76
0.166550 -0.479514 0.226383 76 153 0
0.253212 -0.047065 0.100514 76 153 0
-0.166762 -0.109853 -0.219217 76 153 0
0.145245 0.377897 0.068970 153 0 76
0.113896 0.673884 -0.010225 153 0 76
0.181464 -0.495413 -0.209693 76 153 0
-0.156781 0.378934 -0.016038 153 0 76
0.082252 0.840076 -0.057022 153 0 76
-0.262408 -0.355899 0.093039 76 153 0
-0.047893 0.247731 0.184475 76 153 0
-0.004677 -0.366096 0.279911 76 153 0
0.164051 0.312236 -0.050183 153 0 76
0.229107 -0.301210 0.161765 76 153 0
-0.192714 -0.089060 -0.193525 76 153 0
0.108920 0.730161 -0.014979 153 0 76
-0.012464 0.044808 0.251444 76 153 0
0.246390 -0.386964 -0.127405 76 153 0
-0.064118 0.190418 -0.193165 76 153 0
0.045221 0.902489 0.100901 76 0 153
0.096542 -0.039232 0.254047 76 153 0
0.167231 -0.289421 0.225915 76 153 0
0.123682 -0.010022 0.236784 76 153 0
-0.211500 -0.492579 -0.178643 76 153 0
-0.277177 -0.424243 -0.013260 76 153 0
0.272888 -0.625132 0.055799 76 153 0
-0.064912 0.762195 -0.082826 153 0 76
0.206529 -0.142415 -0.183313 76 153 0
0.095571 0.071169 0.224929 76 153 0
0.032043 0.981076 0.009206 76 0 153
0.070585 -0.318542 0.271088 76 153 0
0.278027 -0.411688 0.008315 76 153 0
-0.094766 0.792838 -0.040775 153 0 76
0.276610 -0.115372 0.016772 76 153 0
0.028370 0.803269 0.102483 153 0 76
0.129127 0.318548 -0.110035 153 0 76
0.154235 -0.586769 0.234228 76 153 0
0.080911 0.447582 0.123425 153 0 76
-0.169891 -0.031595 -0.205675 76 153 0
-0.054153 0.956870 0.093826 76 0 153
-0.002867 0.981076 -0.075763 76 0 153
-0.241112 -0.315128 0.139016 76 153 0
-0.139035 0.246531 0.129963 76 153 0
0.198027 0.170826 0.078551 76 153 0
-0.072599 -0.421955 -0.265857 76 153 0
-0.101535 0.845264 0.025888 153 0 76
0.229845 -0.029702 -0.135484 76 153 0
-0.179574 -0.299992 0.214856 76 153 0
0.071305 0.945886 -0.075469 76 0 153
-0.240691 -0.247505 0.139745 76 153 0
0.215896 -0.188565 -0.175375 76 153 0
0.015064 0.845822 0.108851 153 0 76
-0.147607 -0.385447 0.237300 76 153 0
0.255772 0.028621 0.011072 76 153 0
-0.201296 -0.604448 -0.188548 76 153 0
-0.273868 -0.560694 0.049739 76 153 0
-0.065285 0.438897 -0.129490 153 0 76
-0.179290 0.276294 0.016042 76 153 0
0.122003 0.579119 0.010806 153 0 76
-0.080254 -0.021427 0.256218 76 153 0
0.070962 0.961301 0.081315 76 0 153
0.102542 -0.575325 0.261572 76 153 0
0.013363 0.879485 -0.001238 76 0 153
0.277709 -0.237196 -0.029172 76 153 0
-0.167024 -0.232350 -0.221055 76 153 0
-0.136711 -0.620864 -0.238587 76 153 0
0.113871 0.486555 0.081384 153 0 76
0.113998 0.382183 0.112113 153 0 76
0.158773 0.067241 -0.182615 76 153 0
-0.240074 -0.517258 0.140816 76 153 0
-0.074307 0.596362 0.096063 153 0 76
0.122389 -0.298458 0.252576 76 153 0
0.053970 0.879485 -0.063254 76 0 153
-0.140791 0.178438 0.156185 76 153 0
0.183363 -0.408086 0.211440 76 153 0
-0.035131 0.829475 0.096467 153 0 76
0.015863 0.599213 0.120864 153 0 76
0.148629 0.421454 -0.023589 153 0 76
-0.050061 0.145759 -0.210422 76 153 0
-0.102097 0.957224 -0.038106 76 0 153
0.018696 0.879485 0.048615 76 0 153
-0.275731 -0.275270 0.037595 76 153 0
-0.106913 -0.626344 0.258164 76 153 0
-0.084944 0.994485 0.013492 76 0 153
-0.266810 -0.513511 -0.072886 76 153 0
-0.008500 0.206553 0.202527 76 153 0
0.165449 -0.141334 0.225864 76 153 0
0.238164 0.077839 0.034420 76 153 0
0.012954 0.962162 0.105291 76 0 153
-0.088429 0.322942 -0.141982 153 0 76
0.105132 -0.401869 0.260202 76 153 0
-0.136171 -0.220428 0.243635 76 153 0
-0.176742 -0.268283 0.217373 76 153 0
-0.272127 -0.267575 -0.052668 76 153 0
-0.121484 -0.323006 0.251525 76 153 0
0.080810 -0.118450 0.266169 76 153 0
0.111683 0.351834 -0.118429 153 0 76
0.135213 0.436132 0.062927 153 0 76
0.227132 -0.381678 -0.161130 76 153 0
0.127769 -0.069521 0.243352 76 153 0
0.180735 0.011292 0.190500 76 153 0
-0.042818 -0.474929 0.276934 76 153 0
0.253219 -0.248874 -0.114563 76 153 0
-0.096809 -0.364374 -0.258985 76 153 0
-0.075912 -0.290841 0.269006 76 153 0
0.275929 -0.463464 -0.039076 76 153 0
0.267354 -0.233715 0.079203 76 153 0
0.271371 -0.457683 0.063792 76 153 0
-0.233053 -0.089996 -0.142459 76 153 0
-0.104587 0.958093 0.008775 76 0 153
0.003472 -0.576313 0.280025 76 153 0
-0.271310 -0.084798 -0.039415 76 153 0
0.121599 -0.172064 -0.248794 76 153 0
0.181878 0.274166 0.002195 76 153 0
-0.232239 -0.152722 -0.148483 76 153 0
-0.087920 0.128852 0.207561 76 153 0
0.068271 0.209781 0.190409 76 153 0
-0.076836 0.113099 -0.212946 76 153 0
0.228111 0.032191 -0.110921 76 153 0
0.122135 0.032049 0.224982 76 153 0
-0.047019 0.833728 -0.087278 153 0 76
0.146979 0.324657 0.086953 153 0 76
0.268295 -0.379536 0.075869 76 153 0
0.275943 -0.286166 0.043384 76 153 0
0.262425 -0.268844 0.096502 76 153 0
0.033399 0.981076 0.070360 76 0 153
0.090147 0.538506 -0.089302 153 0 76
-0.092031 0.912277 0.056197 76 0 153
0.278598 -0.534081 -0.011757 76 153 0
-0.154989 0.198415 -0.129083 76 153 0
0.255502 -0.506774 0.115297 76 153 0
0.130636 -0.419372 0.247423 76 153 0
0.273057 -0.108597 -0.046652 76 153 0
-0.117247 0.626659 0.002456 153 0 76
0.126605 0.547732 -0.005694 153 0 76
0.063178 0.994485 -0.044974 76 0 153
-0.122593 -0.091286 -0.244121 76 153 0
-0.101019 0.277927 0.151195 76 153 0
-0.104070 0.790185 0.007576 153 0 76
0.076422 0.305011 -0.153456 153 0 76
-0.184114 -0.349055 -0.206030 76 153 0
0.016697 0.289414 -0.174160 153 0 76
-0.128756 -0.174141 0.248195 76 153 0
-0.220730 0.039985 -0.116954 76 153 0
-0.135819 0.490916 -0.008850 153 0 76
-0.213495 -0.540630 -0.176489 76 153 0
-0.202962 -0.170814 0.191395 76 153 0
0.257176 0.007411 0.054518 76 153 0
0.057502 0.665571 0.102106 153 0 76
-0.061670 -0.383248 0.273114 76 153 0
-0.015578 -0.405708 -0.275761 76 153 0
0.151680 0.072732 0.190649 76 153 0
0.003185 0.016079 0.261019 76 153 0
-0.108597 0.680097 0.033686 153 0 76
0.269490 -0.047654 0.030169 76 153 0
0.069608 -0.270111 -0.267069 76 153 0
-0.080609 0.605364 -0.085443 153 0 76
-0.087694 0.873759 0.016570 153 0 76
0.133331 0.487654 -0.034729 153 0 76
0.274373 -0.075689 0.007250 76 153 0
0.058450 -0.590042 -0.269897 76 153 0
0.107529 0.935086 0.004425 76 0 153
-0.088760 0.962273 0.063006 76 0 153
0.016573 -0.317405 -0.275762 76 153 0
-0.060679 0.075978 0.233434 76 153 0
0.113221 0.294370 -0.133120 153 0 76
0.156813 -0.017044 0.218261 76 153 0
-0.066566 -0.563380 0.271449 76 153 0
-0.237664 0.071530 0.041974 76 153 0
-0.187604 -0.642000 0.201076 76 153 0
-0.150893 0.042564 0.202980 76 153 0
0.039943 -0.385438 -0.273738 76 153 0
0.056318 -0.065876 0.268767 76 153 0
-0.239270 -0.567106 0.142195 76 153 0
-0.052201 -0.117144 0.273724 76 153 0
0.188882 -0.326227 -0.202720 76 153 0
-0.184370 -0.521484 0.210062 76 153 0
0.015955 0.452980 0.145521 153 0 76
0.105233 0.992136 -0.010001 76 0 153
-0.078963 0.563161 0.097368 153 0 76
-0.241963 -0.629913 -0.131008 76 153 0
0.261164 -0.147141 0.098549 76 153 0
-0.231322 0.082945 -0.049471 76 153 0
0.259574 -0.632837 0.098716 76 153 0
0.002528 -0.227050 0.280049 76 153 0
-0.035444 0.773418 0.101916 153 0 76
-0.186426 0.093669 0.144355 76 153 0
-0.023390 0.994485 -0.094386 76 0 153
0.256102 -0.210458 0.114124 76 153 0
0.071032 -0.011070 -0.253382 76 153 0
0.218388 -0.575443 -0.172506 76 153 0
0.044968 0.560110 0.118305 153 0 76
0.018655 0.958740 -0.105762 76 0 153
-0.102275 0.071379 -0.216684 76 153 0
-0.234424 -0.547728 -0.146322 76 153 0
-0.064009 -0.476783 -0.268210 76 153 0
0.251606 -0.341747 0.123242 76 153 0
0.072604 0.016890 0.250772 76 153 0
0.089400 -0.504853 -0.261665 76 153 0
-0.275329 -0.480577 -0.035932 76 153 0
-0.052082 -0.658208 -0.261561 76 153 0
-0.079468 0.643849 0.086763 153 0 76
-0.099164 0.401958 -0.115780 153 0 76
-0.013799 -0.195395 -0.275759 76 153 0
-0.110123 0.353142 -0.118344 153 0 76
-0.269720 -0.127725 -0.056630 76 153 0
0.087629 0.198498 -0.182128 76 153 0
0.038348 0.508184 0.130588 153 0 76
0.175454 -0.094551 -0.211828 76 153 0
-0.105495 0.756227 0.018744 153 0 76
-0.024990 0.094247 -0.230899 76 153 0
0.116667 0.575041 0.041353 153 0 76
-0.034023 0.229969 -0.188876 76 153 0
-0.205747 -0.456703 0.188399 76 153 0
0.161154 0.190303 -0.127467 76 153 0
-0.039968 -0.066845 0.272487 76 153 0
0.155454 -0.550961 0.233550 76 153 0
0.226625 0.113613 -0.031412 76 153 0
-0.216903 -0.367722 -0.172576 76 153 0
0.257722 -0.059254 -0.086392 76 153 0
0.173124 0.208199 -0.099450 76 153 0
0.253660 -0.309580 -0.114456 76 153 0
0.020290 -0.525811 -0.275579 76 153 0
-0.137635 0.443300 0.050078 153 0 76
-0.082779 0.002843 -0.247238 76 153 0
0.268656 -0.542821 -0.070881 76 153 0
0.107805 0.763204 0.005716 153 0 76
0.077032 -0.320998 -0.265044 76 153 0
-0.277179 -0.519537 0.013939 76 153 0
0.089031 0.929329 0.064781 76 0 153
-0.171484 -0.435894 -0.217669 76 153 0
0.201874 -0.021203 0.177279 76 153 0
0.201509 0.189870 -0.042587 76 153 0
-0.086736 -0.193286 0.266129 76 153 0
-0.112692 0.538085 -0.057701 153 0 76
0.124297 -0.172309 0.251602 76 153 0
0.101787 -0.052894 -0.250563 76 153 0
-0.101026 0.467059 0.100635 153 0 76
-0.105325 -0.352126 0.259371 76 153 0
0.207929 -0.252902 -0.183672 76 153 0
0.075793 0.901254 0.012069 76 0 153
-0.275319 -0.121178 -0.000145 76 153 0
-0.025487 0.883043 -0.105828 76 0 153
-0.043421 -0.533937 0.276712 76 153 0
-0.238694 -0.182199 -0.138847 76 153 0
0.043494 -0.616450 0.277008 76 153 0
-0.258220 -0.029627 -0.064402 76 153 0
-0.257970 -0.391664 -0.101655 76 153 0
0.017859 0.879485 -0.046257 76 0 153
-0.128651 -0.100116 0.245314 76 153 0
-0.270819 -0.113511 0.054903 76 153 0
-0.140960 0.343588 0.087682 153 0 76
-0.276405 -0.187474 -0.026589 76 153 0
0.019890 -0.095111 -0.272693 76 153 0
-0.015543 0.287864 -0.174528 153 0 76
0.139788 -0.509571 -0.238431 76 153 0
-0.086157 0.294539 -0.150627 76 153 0
0.187285 0.244785 0.037262 76 153 0
0.063530 0.215466 -0.186306 76 153 0
0.106324 0.898002 0.013975 76 0 153
-0.089676 -0.436735 0.265416 76 153 0
0.275252 -0.233231 0.048487 76 153 0
-0.008076 0.343618 -0.162827 153 0 76
-0.094578 -0.257170 0.263891 76 153 0
-0.188994 -0.578668 0.205390 76 153 0
0.264912 -0.476954 -0.084257 76 153 0
0.109013 0.697038 -0.028420 153 0 76
0.277132 -0.394840 0.034701 76 153 0
-0.009314 0.019247 -0.255840 76 153 0
-0.107624 0.173694 -0.178241 76 153 0
0.208855 -0.628512 -0.180770 76 153 0
-0.015292 0.488683 -0.134452 153 0 76
0.220243 0.103759 0.075065 76 153 0
-0.173376 -0.209587 0.220306 76 153 0
-0.050818 0.424739 0.142809 153 0 76
0.020467 0.153654 -0.213372 76 153 0
0.018884 -0.172841 0.279909 76 153 0
0.269568 -0.338438 -0.068081 76 153 0
0.185350 0.239404 -0.047378 76 153 0
-0.011241 -0.284622 0.280049 76 153 0
-0.043311 -0.337643 -0.272999 76 153 0
-0.029654 0.398349 0.153648 153 0 76
-0.237189 0.002090 0.114963 76 153 0
-0.070529 -0.381104 -0.266426 76 153 0
-0.227396 0.098667 0.049270 76 153 0
0.277905 -0.581310 0.027015 76 153 0
-0.217168 0.086186 0.095890 76 153 0
-0.081311 0.879485 -0.024665 76 0 153
0.124100 0.247661 0.145783 76 153 0
-0.029109 -0.620991 0.278669 76 153 0
0.109139 0.161873 0.186323 76 153 0
-0.155913 -0.117186 0.230088 76 153 0
-0.179693 0.229681 -0.071520 76 153 0
0.228005 -0.111268 -0.156565 76 153 0
0.275169 -0.300025 -0.044793 76 153 0
0.051563 -0.622990 -0.271068 76 153 0
0.210406 0.174271 0.019964 76 153 0
0.082676 -0.261604 0.267813 76 153 0
-0.108650 0.705657 -0.019194 153 0 76
0.210541 -0.408305 0.185077 76 153 0
-0.040597 -0.027973 0.265954 76 153 0
-0.188820 0.149411 -0.104350 76 153 0
-0.119454 0.591720 0.010074 153 0 76
0.277006 -0.370790 -0.034217 76 153 0
0.004585 0.653971 0.117497 153 0 76
0.046547 -0.422753 0.276847 76 153 0
0.245777 -0.168461 -0.129035 76 153 0
0.258933 -0.603497 0.106397 76 153 0
-0.031838 -0.334198 0.279043 76 153 0
0.123246 0.502453 0.058600 153 0 76
-0.111068 -0.478332 -0.253344 76 153 0
-0.055877 -0.664938 0.258387 76 153 0
-0.254823 -0.634699 -0.103944 76 153 0
-0.036706 0.446186 -0.138634 153 0 76
0.251514 -0.001192 -0.077887 76 153 0
0.088182 0.963298 -0.054459 76 0 153
-0.180050 0.063790 -0.161719 76 153 0
0.092547 0.742455 0.060099 153 0 76
0.074100 0.404623 -0.133057 153 0 76
-0.210832 0.168750 0.014313 76 153 0
0.114833 -0.106585 -0.250627 76 153 0
0.223193 -0.072214 0.162272 76 153 0
0.167309 -0.631110 -0.219305 76 153 0
0.050746 -0.552995 0.276008 76 153 0
0.261418 -0.440716 0.100243 76 153 0
-0.073697 0.994485 0.056845 76 0 153
-0.031182 -0.172207 0.279042 76 153 0
-0.217064 0.138550 -0.034815 76 153 0
0.091969 -0.082175 -0.256842 76 153 0
-0.243994 -0.621724 0.133164 76 153 0
0.233585 0.066251 -0.066085 76 153 0
0.158370 -0.624421 0.230597 76 153 0
0.098663 -0.531498 0.263095 76 153 0
0.124712 -0.230483 0.250925 76 153 0
-0.077548 0.032929 0.243627 76 153 0
-0.043866 0.864548 0.108965 153 0 76
-0.119800 -0.001310 0.236244 76 153 0
-0.190526 0.095517 -0.132774 76 153 0
0.273968 -0.426154 -0.049679 76 153 0
0.236716 0.087848 -0.007446 76 153 0
-0.201404 -0.140226 0.191226 76 153 0
0.115357 0.656139 0.012566 153 0 76
-0.213428 -0.202819 -0.176563 76 153 0
-0.039325 0.609751 0.113904 153 0 76
0.008954 0.247119 -0.186771 76 153 0
-0.011426 0.161315 0.215678 76 153 0
0.260387 -0.559680 -0.098305 76 153 0
0.188540 -0.036664 -0.189615 76 153 0
-0.055660 -0.501114 0.274457 76 153 0
0.038053 0.174854 -0.204646 76 153 0
-0.022462 0.071993 0.242417 76 153 0
-0.238809 -0.142289 0.139954 76 153 0
-0.158917 -0.355932 0.230766 76 153 0
0.217765 -0.512990 -0.173229 76 153 0
0.058471 0.901254 -0.042120 76 0 153
0.041857 0.861485 0.110871 153 0 76
0.044241 -0.484771 0.277139 76 153 0
0.118944 -0.230582 -0.250157 76 153 0
-0.111956 0.219490 0.164458 76 153 0
-0.117705 -0.414476 -0.250055 76 153 0
-0.128730 0.493812 0.045862 153 0 76
0.198302 0.130719 0.105619 76 153 0
0.052659 0.901254 0.048363 76 0 153
0.204153 -0.050086 0.181715 76 153 0
-0.005351 0.983535 0.111395 76 0 153
0.038959 0.195260 0.203028 76 153 0
-0.005097 -0.665389 -0.259661 76 153 0
-0.090707 0.241828 0.169188 76 153 0
0.155441 0.041261 0.200805 76 153 0
-0.120599 -0.482591 0.252720 76 153 0
0.158162 0.276566 -0.086170 76 153 0
0.278374 -0.315522 -0.015683 76 153 0
-0.108526 0.732023 -0.004060 153 0 76
-0.100938 -0.309266 -0.257382 76 153 0
-0.155770 -0.311634 0.232483 76 153 0
0.118496 0.602598 -0.018304 153 0 76
-0.017270 0.745452 -0.104689 153 0 76
0.000314 0.901254 -0.057450 76 0 153
-0.017019 0.120689 -0.223321 76 153 0
-0.034235 -0.223986 0.278677 76 153 0
-0.205683 -0.455838 -0.184462 76 153 0
-0.102363 0.631452 0.058896 153 0 76
-0.117309 -0.383003 0.254138 76 153 0
0.030743 0.022044 -0.254038 76 153 0
-0.191019 0.037420 -0.162725 76 153 0
-0.108575 0.078276 0.214716 76 153 0
-0.049616 -0.399749 -0.271822 76 153 0
0.245609 -0.286336 -0.128906 76 153 0
0.015892 0.901254 -0.088075 76 0 153
0.072593 0.606731 -0.092979 153 0 76
0.267227 -0.047557 -0.044308 76 153 0
0.100933 0.898689 -0.039957 76 0 153
0.274925 -0.498725 0.051511 76 153 0
0.105108 0.303890 0.141102 153 0 76
-0.178855 -0.085557 0.210790 76 153 0
-0.040451 0.879485 -0.046042 76 0 153
-0.002548 -0.483217 0.279682 76 153 0
-0.253319 -0.246745 -0.112559 76 153 0
-0.273358 -0.596384 0.051352 76 153 0
0.253079 -0.004557 0.080004 76 153 0
-0.009965 -0.456879 -0.275762 76 153 0
0.198443 -0.316784 0.197351 76 153 0
-0.087218 -0.195216 -0.261890 76 153 0
0.258480 -0.121320 -0.099181 76 153 0
-0.172053 -0.407177 0.221393 76 153 0
0.191426 0.209251 0.062621 76 153 0
0.221959 -0.549713 0.172001 76 153 0
0.049737 -0.059189 -0.266006 76 153 0
0.022916 -0.411496 -0.275413 76 153 0
-0.088880 0.795824 0.056091 153 0 76
-0.224511 -0.264789 -0.162854 76 153 0
-0.032793 0.901254 0.082057 76 0 153
0.210913 0.148688 -0.054127 76 153 0
-0.188916 0.038118 0.167914 76 153 0
0.099298 0.647334 0.063935 153 0 76
-0.088362 0.901869 -0.057034 76 0 153
-0.091757 0.538879 0.090505 153 0 76
-0.058905 0.981076 -0.058606 76 0 153
-0.043061 0.879485 0.054303 76 0 153
-0.250674 0.039902 0.008844 76 153 0
0.074888 -0.435630 -0.265625 76 153 0
-0.093779 -0.056001 0.257141 76 153 0
0.162630 0.254484 0.095581 76 153 0
-0.125733 0.451848 -0.068195 153 0 76
0.206540 -0.165485 0.189257 76 153 0
-0.024241 0.270275 0.182721 76 153 0
-0.218676 -0.002521 -0.144867 76 153 0
0.245992 -0.155872 0.132865 76 153 0
-0.270739 -0.080209 0.044555 76 153 0
0.182708 -0.640108 0.208218 76 153 0
-0.052616 0.928463 -0.090546 76 0 153
0.165703 -0.396637 -0.223111 76 153 0
0.027134 -0.461347 -0.275150 76 153 0
-0.053247 0.857686 -0.100533 153 0 76
-0.140125 -0.639697 0.237516 76 153 0
0.065705 0.901254 -0.014110 76 0 153
-0.134544 0.113754 -0.182432 76 153 0
0.128242 0.398814 -0.085778 153 0 76
-0.062061 0.346962 -0.150523 153 0 76
0.275889 -0.515684 -0.040266 76 153 0
-0.099480 -0.532345 0.262152 76 153 0
0.107102 0.859315 0.049507 153 0 76
0.189566 0.057399 0.160438 76 153 0
0.044648 0.994669 0.093730 76 0 153
0.165902 0.228192 0.105185 76 153 0
0.125188 -0.662438 0.236836 76 153 0
0.230128 -0.627726 0.157465 76 153 0
-0.109994 0.889631 0.006059 76 0 153
-0.254122 -0.098273 0.107175 76 153 0
0.200965 -0.366084 -0.190051 76 153 0
0.152178 0.165802 0.151437 76 153 0
0.096693 -0.303054 0.263545 76 153 0
-0.016572 -0.007076 -0.261554 76 153 0
0.122422 -0.592721 0.252617 76 153 0
0.000540 0.981076 0.019639 76 0 153
-0.171600 -0.164929 -0.217432 76 153 0
0.207421 -0.461195 0.188013 76 153 0
-0.140924 -0.060903 0.234070 76 153 0
-0.039506 -0.282377 -0.273582 76 153 0
0.248528 -0.655205 0.111370 76 153 0
0.102895 -0.550825 -0.257173 76 153 0
0.200937 -0.596441 0.194752 76 153 0
-0.038605 0.901254 0.012331 76 0 153
0.241885 0.000531 -0.103903 76 153 0
-0.264500 -0.595964 -0.081024 76 153 0
0.173234 0.151749 0.134615 76 153 0
-0.086276 0.631130 -0.076784 153 0 76
-0.207874 -0.308851 -0.182270 76 153 0
-0.275055 -0.631087 0.004060 76 153 0
-0.046331 0.804226 0.094054 153 0 76
-0.082156 0.879485 0.043100 76 0 153
-0.046165 0.879485 -0.018691 76 0 153
0.109428 0.958461 -0.012336 76 0 153
0.273341 -0.605652 -0.052734 76 153 0
-0.261995 -0.005608 -0.026487 76 153 0
-0.260993 -0.567454 0.097670 76 153 0
-0.149365 -0.089148 -0.228570 76 153 0
-0.168666 0.317209 0.021637 153 0 76
-0.217847 -0.594909 0.175522 76 153 0
0.035600 0.508475 -0.126969 153 0 76
-0.039761 0.621250 -0.108785 153 0 76
0.150297 -0.139138 -0.230517 76 153 0
-0.219451 0.124978 0.047532 76 153 0
-0.174032 -0.622042 0.218935 76 153 0
0.067588 0.849790 0.093151 153 0 76
0.009172 0.901254 0.091116 76 0 153
-0.238672 -0.342198 0.143244 76 153 0
0.033015 0.768046 0.103740 153 0 76
0.218485 0.074114 0.104802 76 153 0
0.182025 -0.222355 0.213561 76 153 0
-0.255524 -0.496570 -0.107944 76 153 0
-0.277105 -0.296201 0.019925 76 153 0
0.267622 -0.260782 -0.073291 76 153 0
0.209572 0.025364 -0.147055 76 153 0
-0.176746 0.171489 0.116872 76 153 0
0.185804 -0.516446 0.210057 76 153 0
-0.191677 0.208644 0.057832 76 153 0
0.080706 -0.381773 -0.264059 76 153 0
-0.147621 -0.569524 -0.233061 76 153 0
0.172608 0.109422 0.154339 76 153 0
-0.240319 -0.045611 -0.119289 76 153 0
-0.228056 -0.539320 0.161532 76 153 0
-0.227318 -0.441562 0.162347 76 153 0
-0.005185 -0.073233 0.275557 76 153 0
0.232501 -0.461027 0.155665 76 153 0
-0.270381 -0.236080 -0.059698 76 153 0
0.174328 -0.595230 -0.216172 76 153 0
-0.080794 0.424208 0.128012 153 0 76
0.079117 0.893998 -0.070985 76 0 153
0.109216 0.882327 -0.013582 76 0 153
0.185396 -0.172479 0.210333 76 153 0
-0.069309 0.901254 0.020771 76 0 153
0.207711 0.089912 -0.109962 76 153 0
-0.191877 -0.507861 -0.198269 76 153 0
0.108237 0.725589 0.024196 153 0 76
-0.206030 -0.038124 0.175233 76 153 0
-0.036672 0.503815 -0.127036 153 0 76
-0.274628 -0.210805 -0.040500 76 153 0
-0.209206 -0.484718 0.185062 76 153 0
0.037749 0.879485 0.023974 76 0 153
-0.093405 -0.090445 -0.256664 76 153 0
-0.153639 -0.520181 -0.229595 76 153 0
-0.239273 -0.467437 0.142204 76 153 0
0.074859 -0.184286 -0.265615 76 153 0
-0.203053 -0.515126 0.191380 76 153 0
0.248186 -0.468634 0.128519 76 153 0
-0.277126 -0.171285 0.011658 76 153 0
0.039875 0.369498 -0.153346 153 0 76
-0.264046 -0.340071 -0.083188 76 153 0
0.140210 -0.536696 -0.238188 76 153 0
0.206753 -0.055936 -0.175794 76 153 0
-0.127100 0.270790 0.132072 76 153 0
-0.118174 -0.655745 -0.240289 76 153 0
0.026501 0.994485 -0.078704 76 0 153
-0.200218 -0.002232 0.173680 76 153 0
0.087553 0.275377 0.160925 76 153 0
0.259638 -0.576450 0.105078 76 153 0
-0.274256 -0.325099 -0.042938 76 153 0
0.067236 0.568931 0.105674 153 0 76
0.172964 -0.302175 -0.217651 76 153 0
-0.220963 -0.058369 -0.156544 76 153 0
0.172421 0.311955 0.003049 153 0 76
-0.271098 -0.060820 0.014320 76 153 0
-0.111987 -0.606759 -0.252627 76 153 0
0.103320 0.777116 0.028832 153 0 76
-0.107954 0.034352 0.231041 76 153 0
-0.161216 0.221502 0.114471 76 153 0
0.153699 0.380372 0.042374 153 0 76
0.265174 -0.013803 -0.001307 76 153 0
-0.038595 -0.031429 -0.262327 76 153 0
0.235977 -0.108092 0.145794 76 153 0
-0.194656 -0.411007 0.199332 76 153 0
-0.204293 -0.016955 -0.168656 76 153 0
0.053404 0.995589 -0.077744 76 0 153
0.101137 0.859473 -0.055533 153 0 76
0.277985 -0.272779 0.006750 76 153 0
0.273627 -0.587661 0.056447 76 153 0
-0.150870 0.152911 -0.152371 76 153 0
-0.229969 -0.238139 -0.154002 76 153 0
0.116399 0.098945 0.203755 76 153 0
0.117795 -0.643552 -0.246036 76 153 0
-0.157850 0.024851 -0.200566 76 153 0
-0.277178 -0.328861 -0.002319 76 153 0
-0.089088 0.226768 -0.171018 76 153 0
0.170176 -0.039869 0.212550 76 153 0
0.229687 -0.243499 0.160157 76 153 0
0.139536 0.201052 0.149421 76 153 0
-0.053015 0.220953 0.191306 76 153 0
0.084484 -0.451545 0.267238 76 153 0
0.138138 0.489090 0.005496 153 0 76
-0.255479 -0.422631 -0.108060 76 153 0
0.180876 0.036073 -0.174752 76 153 0
-0.086497 -0.026085 -0.250858 76 153 0
0.228916 -0.329478 -0.158243 76 153 0
0.035239 0.918815 -0.101518 76 0 153
-0.251612 -0.351536 0.120285 76 153 0
-0.051050 0.248277 -0.179358 76 153 0
-0.195664 0.215575 0.029929 76 153 0
0.075117 -0.663473 -0.252136 76 153 0
0.062444 0.239143 0.183329 76 153 0
0.054973 0.835123 -0.083477 153 0 76
0.055092 0.321766 0.162859 153 0 76
-0.244072 -0.141661 -0.127247 76 153 0
0.267436 -0.056341 0.055335 76 153 0
0.274957 -0.127114 0.042294 76 153 0
0.019307 0.572825 0.122899 153 0 76
-0.113145 0.624699 -0.029238 153 0 76
-0.011498 0.873759 0.102790 153 0 76
-0.277177 -0.227284 -0.008370 76 153 0
-0.149813 0.085287 0.185475 76 153 0
-0.167229 -0.274607 -0.220898 76 153 0
0.224186 -0.356485 0.169544 76 153 0
-0.056533 0.892600 -0.093230 76 0 153
-0.213406 -0.386579 0.180094 76 153 0
-0.127229 -0.143354 -0.243495 76 153 0
-0.053302 -0.452596 -0.270906 76 153 0
-0.277177 -0.459644 -0.010960 76 153 0
0.099215 0.786166 -0.034114 153 0 76
-0.043038 0.747716 -0.097179 153 0 76
0.057722 0.267777 -0.171936 76 153 0
0.091433 0.995589 0.012409 76 0 153
0.172976 -0.147331 -0.216228 76 153 0
0.253581 -0.510911 -0.114783 76 153 0
0.186174 0.153783 -0.108676 76 153 0
-0.047677 0.080274 -0.231686 76 153 0
0.044809 -0.268904 0.277012 76 153 0
0.251970 0.039708 -0.017413 76 153 0
0.140319 -0.530103 0.242187 76 153 0
-0.025939 0.124720 0.225579 76 153 0
0.191573 0.119341 -0.119425 76 153 0
0.020617 -0.629777 0.277961 76 153 0
-0.098851 -0.431208 -0.258192 76 153 0
-0.242970 -0.001532 -0.099737 76 153 0
0.111357 -0.272544 -0.253883 76 153 0
0.276934 -0.168646 -0.033879 76 153 0
0.241933 -0.307023 0.139384 76 153 0
0.058613 0.879485 0.004098 76 0 153
0.126261 0.444181 -0.072082 153 0 76
0.271952 -0.401936 0.062348 76 153 0
-0.054625 0.382414 -0.146271 153 0 76
0.248947 -0.339321 -0.123655 76 153 0
-0.009998 0.927136 0.108447 76 0 153
0.264359 -0.646877 -0.066554 76 153 0
-0.105883 0.944539 -0.015251 76 0 153
0.004642 0.901254 0.053661 76 0 153
-0.100759 0.128900 -0.197148 76 153 0
-0.095347 -0.566495 0.263688 76 153 0
-0.262195 -0.004930 0.025720 76 153 0
-0.214694 0.022778 -0.138550 76 153 0
0.177559 -0.252558 0.216787 76 153 0
0.269522 -0.286924 0.070645 76 153 0
0.131062 -0.203254 -0.243466 76 153 0
0.106120 -0.612189 0.259725 76 153 0
-0.070963 0.034034 -0.240805 76 153 0
-0.259213 -0.024621 0.060119 76 153 0
0.105367 0.592497 -0.057463 153 0 76
-0.276709 -0.382138 0.026255 76 153 0
-0.262335 -0.280950 -0.089013 76 153 0
0.144606 -0.287138 0.239938 76 153 0
0.193507 0.026518 0.170745 76 153 0
-0.254034 -0.095513 -0.103499 76 153 0
0.073429 0.873759 0.066880 153 0 76
0.108219 0.647905 -0.041826 153 0 76
-0.083179 0.696647 0.076811 153 0 76
-0.105414 0.866753 -0.041240 153 0 76
-0.056860 0.652235 0.102819 153 0 76
0.231595 -0.590514 -0.152895 76 153 0
-0.259558 -0.604585 0.100911 76 153 0
0.220253 -0.510648 0.174685 76 153 0
-0.027983 0.316483 -0.166198 153 0 76
-0.165266 -0.438193 0.226640 76 153 0
0.278219 -0.365385 0.024156 76 153 0
0.241488 -0.555170 0.140510 76 153 0
0.030855 -0.360153 0.279205 76 153 0
0.276058 -0.526457 0.043415 76 153 0
-0.030509 0.165838 -0.208597 76 153 0
-0.277179 -0.536915 -0.005664 76 153 0
-0.230856 -0.588082 -0.152273 76 153 0
-0.021986 0.981076 -0.005902 76 0 153
-0.194012 0.227451 0.000090 76 153 0
0.212816 -0.228673 0.183068 76 153 0
0.109375 0.040774 -0.225065 76 153 0
-0.170343 0.116932 -0.147568 76 153 0
0.278478 -0.595174 0.003179 76 153 0
0.087564 0.098655 -0.214467 76 153 0
0.033632 -0.490137 -0.274705 76 153 0
0.228298 -0.210875 -0.159293 76 153 0
-0.027066 0.901254 -0.040622 76 0 153
-0.146319 -0.186037 -0.233799 76 153 0
0.260406 -0.392303 0.102067 76 153 0
-0.276518 -0.225528 0.029312 76 153 0
0.059311 0.968911 -0.091054 76 0 153
0.041808 0.755320 -0.097752 153 0 76
-0.062071 0.893998 -0.057232 76 0 153
0.122059 0.444571 0.083771 153 0 76
0.033931 0.255091 0.186190 76 153 0
0.036531 -0.118085 -0.272437 76 153 0
-0.107077 0.325707 0.132595 153 0 76
-0.166894 0.322899 -0.021735 153 0 76
-0.076062 -0.266251 -0.264920 76 153 0
-0.001985 0.291612 0.178489 76 153 0
0.211714 -0.006219 -0.158825 76 153 0
0.242965 -0.033153 -0.113289 76 153 0
0.007409 0.233469 0.195065 76 153 0
0.142674 0.445743 0.034889 153 0 76
-0.046289 0.890984 0.101747 76 0 153
-0.272125 -0.643143 -0.023678 76 153 0
-0.102154 -0.098584 0.258296 76 153 0
-0.270373 -0.225350 0.063995 76 153 0
0.270715 -0.340091 0.068181 76 153 0
-0.067663 0.465378 -0.122316 153 0 76
0.046578 -0.119498 0.275312 76 153 0
-0.246447 0.009977 0.087372 76 153 0
0.149616 0.252081 -0.112297 76 153 0
-0.030305 -0.552226 -0.274858 76 153 0
0.008431 0.887334 -0.108624 76 0 153
-0.099179 0.643490 -0.058021 153 0 76
-0.276362 -0.262716 -0.027468 76 153 0
0.116571 0.858716 -0.005527 153 0 76
-0.120542 -0.276235 0.252903 76 153 0
-0.093538 0.850293 -0.059909 153 0 76
0.029197 0.879485 -0.078249 76 0 153
-0.275830 -0.182318 0.036808 76 153 0
0.019050 0.981076 -0.018492 76 0 153
-0.004697 -0.505172 -0.275763 76 153 0
0.000128 0.828549 -0.100107 153 0 76
-0.005963 -0.065582 -0.270292 76 153 0
0.260757 -0.327804 0.102449 76 153 0
-0.038607 0.981076 0.077731 76 0 153
-0.008609 0.742338 0.110306 153 0 76
-0.013511 0.072495 -0.238735 76 153 0
-0.158367 0.293042 0.078185 153 0 76
0.091609 -0.506171 0.264914 76 153 0
0.165120 -0.446452 -0.223541 76 153 0
-0.209175 0.168788 -0.028428 76 153 0
0.167055 0.165524 -0.131341 76 153 0
-0.050605 0.104298 0.227127 76 153 0
-0.078178 0.873491 0.070568 153 0 76
0.113533 0.640083 0.032593 153 0 76
0.223856 0.095563 -0.067346 76 153 0
-0.181431 0.262059 -0.030007 76 153 0
-0.072766 -0.167512 0.270014 76 153 0
0.118312 -0.352464 0.254755 76 153 0
-0.083437 0.845383 0.067405 153 0 76
0.104267 0.114388 -0.200920 76 153 0
-0.110717 -0.127323 0.256000 76 153 0
0.275723 -0.175922 0.046935 76 153 0
0.181082 -0.581223 0.214749 76 153 0
0.272760 -0.241590 -0.055736 76 153 0
-0.052980 -0.539473 -0.270986 76 153 0
-0.057096 0.739233 0.094707 153 0 76
0.186653 -0.551458 -0.204689 76 153 0
0.277706 -0.445951 0.026280 76 153 0
-0.037630 -0.612329 -0.273525 76 153 0
-0.109600 0.593514 -0.045814 153 0 76
-0.066602 -0.267077 0.271515 76 153 0
-0.270098 -0.425240 -0.060843 76 153 0
0.135539 -0.334456 0.245172 76 153 0
0.044664 0.879485 0.063955 76 0 153
0.116259 -0.588492 -0.251398 76 153 0
-0.129789 0.097916 0.195228 76 153 0
-0.113893 -0.209709 -0.251943 76 153 0
0.088135 0.351902 -0.136618 153 0 76
-0.162766 -0.141366 -0.221941 76 153 0
-0.276615 -0.586141 -0.022397 76 153 0
0.160681 -0.661281 -0.213260 76 153 0
-0.010030 0.879485 0.050768 76 0 153
0.153254 -0.239252 -0.230660 76 153 0
-0.104092 0.919745 -0.021108 76 0 153
0.091517 0.738902 -0.058481 153 0 76
-0.277178 -0.471282 0.015165 76 153 0
0.203459 -0.264376 0.192046 76 153 0
0.087662 0.174842 0.193472 76 153 0
-0.199534 -0.362850 -0.190613 76 153 0
0.180018 0.009686 -0.187125 76 153 0
0.188780 0.189605 -0.080803 76 153 0
0.104866 0.439540 0.106075 153 0 76
-0.102449 0.465328 -0.095537 153 0 76
0.096450 0.841715 -0.024149 153 0 76
0.026420 0.110874 -0.225496 76 153 0
0.230426 -0.637019 -0.149361 76 153 0
0.124237 -0.484768 0.251319 76 153 0
-0.275259 -0.535177 0.040684 76 153 0
-0.099197 0.768214 -0.036129 153 0 76
-0.010564 0.991339 0.040611 76 0 153
-0.081789 -0.641661 -0.259245 76 153 0
0.184785 -0.392428 -0.206815 76 153 0
0.006477 -0.252332 -0.275762 76 153 0
0.066230 0.052162 0.240267 76 153 0
-0.101368 0.989451 -0.035043 76 0 153
0.157420 0.362120 -0.038122 153 0 76
-0.142827 -0.356255 -0.235835 76 153 0
-0.190934 -0.063836 -0.190989 76 153 0
0.092691 0.168970 -0.189125 76 153 0
0.111182 0.683802 0.026522 153 0 76
0.243711 -0.132196 -0.130195 76 153 0
-0.270810 -0.153082 -0.055747 76 153 0
0.197217 -0.356563 0.198673 76 153 0
0.216785 0.153989 0.000298 76 153 0
0.083221 -0.340278 0.267668 76 153 0
-0.013704 -0.375588 -0.275761 76 153 0
0.141967 -0.397027 0.241047 76 153 0
0.267975 -0.539203 0.077534 76 153 0
0.168371 0.319859 0.031330 153 0 76
0.067222 0.491333 -0.117763 153 0 76
-0.138835 -0.446252 0.242360 76 153 0
0.059100 0.879485 -0.088465 76 0 153
-0.261559 -0.367294 -0.091574 76 153 0
-0.277178 -0.412680 0.009281 76 153 0
0.265111 -0.170522 0.088669 76 153 0
0.123354 -0.047480 -0.238443 76 153 0
0.045998 -0.325678 0.277099 76 153 0
0.036807 -0.278247 -0.274219 76 153 0
-0.125055 0.413644 0.087905 153 0 76
0.040548 -0.523702 0.277765 76 153 0
0.142681 0.287422 0.109621 76 153 0
0.015488 0.429696 -0.145786 153 0 76
0.051543 0.808173 -0.087994 153 0 76
-0.013287 -0.314516 0.280049 76 153 0
0.047253 0.674406 -0.101987 153 0 76
0.218996 -0.132160 0.173992 76 153 0
-0.016740 0.981076 -0.035330 76 0 153
0.007224 -0.593347 -0.275640 76 153 0
-0.072530 -0.617251 0.269510 76 153 0
-0.099156 0.349654 0.133056 153 0 76
0.077356 -0.578095 0.269221 76 153 0
-0.099913 0.490255 -0.091315 153 0 76
-0.232983 -0.018700 -0.124839 76 153 0
-0.009794 0.905359 -0.105692 76 0 153
0.037822 0.081658 0.237783 76 153 0
0.231965 -0.287979 -0.151698 76 153 0
-0.231492 -0.494273 0.155689 76 153 0
-0.108389 0.982996 0.019080 76 0 153
0.115497 -0.549638 0.256145 76 153 0
0.262399 -0.500747 -0.093538 76 153 0
-0.270637 -0.263670 0.062932 76 153 0
0.066630 0.723117 0.090584 153 0 76
0.176910 0.107952 -0.145812 76 153 0
-0.160364 0.184044 0.133035 76 153 0
0.118863 0.619348 0.002551 153 0 76
0.254677 -0.206319 -0.112744 76 153 0
0.124374 0.523757 0.044732 153 0 76
-0.040868 0.646190 -0.106353 153 0 76
0.120990 -0.411312 -0.249148 76 153 0
0.034436 0.085889 -0.232698 76 153 0
-0.008981 0.385589 -0.154777 153 0 76
0.084248 -0.093695 0.264364 76 153 0
0.139090 -0.091828 -0.235537 76 153 0
-0.253587 -0.188281 0.116256 76 153 0
0.084723 0.588636 0.089200 153 0 76
0.176630 -0.277008 -0.214457 76 153 0
-0.052488 0.981076 -0.033824 76 0 153
0.040604 0.995589 0.028909 76 0 153
-0.092116 -0.665591 0.247165 76 153 0
-0.019261 0.707229 -0.107346 153 0 76
0.244960 -0.388933 0.134468 76 153 0
0.154731 0.402625 -0.001433 153 0 76
-0.160605 0.276987 -0.079260 76 153 0
0.002848 0.100554 0.234020 76 153 0
0.059332 0.454894 -0.129770 153 0 76
-0.048419 0.272540 0.177006 76 153 0
-0.264009 -0.649839 0.061847 76 153 0
-0.144681 0.324011 -0.084393 153 0 76
-0.166794 -0.570571 0.225494 76 153 0
0.129847 0.384054 0.092654 153 0 76
-0.030421 0.021561 0.257856 76 153 0
-0.064765 0.166469 0.204542 76 153 0
-0.075146 0.884007 -0.079098 76 0 153
0.103991 0.256010 0.157839 76 153 0
0.195732 -0.083348 -0.191039 76 153 0
-0.130181 0.523193 0.000423 153 0 76
-0.255635 -0.144461 0.108951 76 153 0
-0.185422 -0.463865 0.208687 76 153 0
-0.107075 0.005252 -0.237396 76 153 0
-0.010278 0.995589 0.084451 76 0 153
0.071052 0.546221 -0.103195 153 0 76
0.267837 -0.660599 -0.017744 76 153 0
0.169865 -0.177426 -0.219925 76 153 0
0.087962 0.879485 0.023744 76 0 153
0.116961 0.346921 0.119010 153 0 76
-0.130573 0.226247 0.146859 76 153 0
-0.171366 -0.502465 0.222058 76 153 0
-0.239965 -0.459038 -0.136709 76 153 0
-0.250461 -0.330338 -0.118325 76 153 0
-0.064099 -0.145939 -0.267191 76 153 0
-0.249627 -0.040212 0.102046 76 153 0
0.277912 -0.562785 -0.025884 76 153 0
-0.155985 0.323164 0.066778 153 0 76
-0.107857 0.868504 0.031596 153 0 76
0.144296 0.339423 -0.081544 153 0 76
0.094605 -0.606081 -0.259720 76 153 0
-0.267153 -0.392826 -0.071629 76 153 0
-0.268682 -0.155908 0.068871 76 153 0
-0.014292 0.879485 0.004640 76 0 153
0.132468 -0.315460 -0.242655 76 153 0
0.250943 -0.363839 -0.119962 76 153 0
0.235945 0.053104 0.078435 76 153 0
-0.033189 -0.242396 -0.274549 76 153 0
-0.013020 -0.432361 -0.275762 76 153 0
0.170745 -0.041054 -0.207790 76 153 0
-0.270853 -0.609666 -0.056645 76 153 0
-0.152011 0.384083 0.040524 153 0 76
0.220503 -0.450942 -0.169612 76 153 0
-0.130760 -0.274962 -0.242800 76 153 0
0.222580 0.055520 -0.105050 76 153 0
-0.147502 -0.259783 0.237232 76 153 0
-0.064093 0.368240 0.149753 153 0 76
0.031614 0.539097 0.126425 153 0 76
0.168297 -0.339730 -0.221196 76 153 0
-0.101386 0.778547 0.030491 153 0 76
0.029636 -0.221842 0.279280 76 153 0
-0.236810 -0.591269 0.146286 76 153 0
-0.034737 0.970811 0.105354 76 0 153
-0.274041 -0.542921 -0.044341 76 153 0
-0.206982 -0.344630 0.187448 76 153 0
0.097528 0.491006 0.099234 153 0 76
-0.153428 -0.618353 0.233250 76 153 0
-0.110262 0.327262 -0.125218 153 0 76
-0.260761 -0.173709 -0.094067 76 153 0
0.075564 0.077271 -0.225603 76 153 0
0.256391 -0.031057 0.082133 76 153 0
0.274154 -0.139585 -0.044645 76 153 0
0.098190 0.639477 -0.062613 153 0 76
-0.108170 0.044819 -0.223230 76 153 0
-0.082893 0.757024 0.070088 153 0 76
0.245812 -0.520649 0.133102 76 153 0
-0.273936 -0.374242 -0.045027 76 153 0
0.022643 0.803281 -0.099522 153 0 76
-0.254859 -0.192569 -0.109445 76 153 0
-0.011062 -0.156053 -0.275421 76 153 0
0.194523 -0.008571 -0.177947 76 153 0
-0.145542 0.112474 0.178269 76 153 0
0.273645 -0.102684 0.044582 76 153 0
-0.015636 0.716274 0.111566 153 0 76
0.265454 -0.210487 -0.083285 76 153 0
-0.274693 -0.445006 0.044368 76 153 0
0.195982 -0.271786 -0.195620 76 153 0
-0.059156 0.879485 0.034673 76 0 153
-0.272490 -0.138335 0.050446 76 153 0
-0.131122 0.320579 0.109653 153 0 76
0.014534 0.639554 -0.113664 153 0 76
-0.083708 0.981076 -0.015307 76 0 153
-0.063910 0.503966 0.120051 153 0 76
0.030609 -0.141792 -0.273667 76 153 0
-0.261821 -0.429306 0.094974 76 153 0
-0.100158 0.840313 0.001971 153 0 76
-0.090230 0.737887 -0.058399 153 0 76
-0.271909 -0.310418 0.057804 76 153 0
-0.148108 0.394617 -0.043375 153 0 76
-0.067643 -0.355014 0.271321 76 153 0
0.088851 0.685998 -0.069123 153 0 76
0.023059 -0.366637 -0.275405 76 153 0
-0.094498 0.183410 0.186832 76 153 0
-0.086069 0.698973 -0.069224 153 0 76
-0.011185 0.613579 -0.116037 153 0 76
-0.106351 0.595619 0.056867 153 0 76
-0.140702 0.442216 -0.035757 153 0 76
0.175585 0.249980 -0.067023 76 153 0
0.260206 -0.612271 -0.098821 76 153 0
-0.145417 -0.231489 -0.234341 76 153 0
-0.146053 0.060171 -0.195340 76 153 0
0.062116 0.367938 0.151054 153 0 76
-0.143617 -0.526052 0.239658 76 153 0
0.104796 0.021444 0.238329 76 153 0
0.006320 0.127299 -0.221701 76 153 0
0.235186 -0.521306 -0.147226 76 153 0
-0.266549 -0.463043 0.078128 76 153 0
-0.046901 0.994485 0.010069 76 0 153
0.123199 -0.452166 0.251787 76 153 0
-0.043653 0.200265 0.199889 76 153 0
0.208096 -0.656014 0.174740 76 153 0
-0.209124 -0.629626 0.183135 76 153 0
0.148038 0.354266 0.073725 153 0 76
-0.106987 0.142467 0.193213 76 153 0
0.205211 -0.600274 -0.186114 76 153 0
-0.042565 0.335326 -0.159049 153 0 76
-0.167436 0.085199 0.168820 76 153 0
0.026787 -0.186699 -0.275159 76 153 0
0.264860 -0.017382 -0.025372 76 153 0
0.052271 -0.364705 -0.271514 76 153 0
0.077797 0.981076 0.027706 76 0 153
-0.197881 -0.659157 -0.177954 76 153 0
-0.196717 -0.191634 -0.193419 76 153 0
0.121750 0.511154 -0.052925 153 0 76
0.278634 -0.498525 0.002719 76 153 0
0.149955 -0.569485 -0.232558 76 153 0
-0.108455 0.440998 -0.096243 153 0 76
-0.035997 -0.268574 0.278407 76 153 0
-0.092995 0.584742 0.079269 153 0 76
0.070274 -0.484416 -0.266887 76 153 0
-0.268769 -0.048701 -0.009666 76 153 0
0.034675 -0.093188 0.275844 76 153 0
0.270518 -0.285304 -0.063629 76 153 0
0.104370 0.845435 0.024845 153 0 76
-0.261311 -0.466012 -0.092392 76 153 0
0.278466 -0.541127 0.011314 76 153 0
-0.019579 -0.116977 0.277870 76 153 0
-0.207785 -0.572744 0.186627 76 153 0
0.052359 0.754848 0.096916 153 0 76
-0.049155 0.981076 0.054827 76 0 153
0.070870 -0.563799 -0.266719 76 153 0
-0.038184 0.901254 0.036534 76 0 153
-0.184254 -0.616311 -0.205287 76 153 0
0.239218 -0.605552 0.144084 76 153 0
-0.009081 0.830171 0.103000 153 0 76
0.035318 -0.665160 0.263376 76 153 0
0.246415 -0.236527 0.132054 76 153 0
0.149629 -0.376201 -0.232752 76 153 0
0.091409 0.561497 -0.082418 153 0 76
0.202101 0.148247 0.086847 76 153 0
-0.085890 -0.474633 0.266553 76 153 0
0.278632 -0.218709 -0.013874 76 153 0
0.139776 0.475556 -0.014520 153 0 76
0.100214 0.545021 0.080881 153 0 76
0.203543 -0.554966 -0.188005 76 153 0
-0.031946 -0.386135 0.278745 76 153 0
0.277111 -0.134999 0.000927 76 153 0
0.030875 0.706170 0.109817 153 0 76
-0.247925 0.028896 -0.054679 76 153 0
0.126266 -0.005749 -0.230359 76 153 0
-0.004341 -0.305621 -0.275762 76 153 0
-0.057439 0.547863 0.114367 153 0 76
0.048444 -0.301213 0.276655 76 153 0
-0.013619 -0.640282 0.276245 76 153 0
0.038150 0.237975 -0.185915 76 153 0
-0.162346 0.069565 -0.176791 76 153 0
-0.261988 -0.111210 0.086864 76 153 0
-0.224379 0.009399 0.133827 76 153 0
0.278212 -0.342438 -0.021158 76 153 0
-0.222931 -0.101566 -0.161146 76 153 0
0.167539 -0.662048 0.210297 76 153 0
0.235031 -0.089198 -0.141978 76 153 0
-0.270189 -0.510900 0.064741 76 153 0
0.068451 -0.483923 0.271284 76 153 0
-0.184046 -0.228474 0.210385 76 153 0
-0.217634 -0.628633 -0.170284 76 153 0
-0.069991 0.818891 -0.072723 153 0 76
-0.005332 0.766084 -0.104479 153 0 76
0.275433 -0.632767 -0.025750 76 153 0
-0.009426 0.564176 -0.120954 153 0 76
0.249633 0.020042 -0.062347 76 153 0
-0.054831 -0.632853 0.272682 76 153 0
-0.060369 -0.354709 -0.269151 76 153 0
0.234640 -0.140710 0.149380 76 153 0
-0.005966 -0.024321 0.267372 76 153 0
0.244762 -0.199213 0.135211 76 153 0
-0.081239 0.901254 -0.034238 76 0 153
-0.125610 0.485605 -0.053271 153 0 76
-0.034966 0.794209 -0.096362 153 0 76
-0.181990 0.205299 0.087166 76 153 0
-0.276102 -0.147564 0.012089 76 153 0
-0.029192 0.400736 -0.149391 153 0 76
0.214849 -0.313214 -0.176190 76 153 0
-0.136262 -0.330576 -0.239624 76 153 0
0.195867 -0.660668 -0.181150 76 153 0
0.146475 -0.503107 0.238413 76 153 0
0.161663 0.362702 -0.013097 153 0 76
-0.265609 -0.087442 -0.063557 76 153 0
0.236418 -0.655263 0.131753 76 153 0
-0.233978 -0.060861 0.139129 76 153 0
0.035722 0.893998 -0.040580 76 0 153
-0.195409 -0.239077 -0.194736 76 153 0
-0.222476 0.093228 0.073901 76 153 0
0.219083 0.136817 -0.034462 76 153 0
0.136644 -0.255386 0.244169 76 153 0
0.267490 -0.436452 0.077761 76 153 0
0.139570 -0.458023 -0.238557 76 153 0
0.125427 0.022715 -0.222559 76 153 0
0.173117 -0.110843 0.219144 76 153 0
0.252623 -0.637061 -0.111297 76 153 0
0.047531 -0.436067 -0.272576 76 153 0
0.144961 -0.225232 0.239559 76 153 0
0.067356 -0.245358 -0.267685 76 153 0
-0.067602 0.579541 -0.098901 153 0 76
0.265075 -0.150801 -0.081707 76 153 0
0.062606 0.910086 0.086106 76 0 153
0.064714 0.639637 0.100080 153 0 76
0.275819 -0.633977 0.021811 76 153 0
-0.234077 -0.067303 -0.136305 76 153 0
0.167946 0.294715 0.056094 153 0 76
0.146882 0.408015 -0.042825 153 0 76
0.106414 0.949379 0.028186 76 0 153
0.111766 -0.492792 -0.253698 76 153 0
-0.035323 -0.199165 0.278509 76 153 0
-0.073263 -0.137376 0.268486 76 153 0
-0.060282 0.165115 -0.201897 76 153 0
-0.244050 0.060366 0.018265 76 153 0
-0.060248 -0.094424 0.270574 76 153 0
-0.179297 -0.373381 -0.210845 76 153 0
-0.114218 0.410672 -0.098692 153 0 76
-0.088716 0.948615 -0.059708 76 0 153
-0.213154 -0.533678 0.181168 76 153 0
-0.277172 -0.564585 -0.001103 76 153 0
-0.001283 0.879485 -0.020442 76 0 153
0.260595 -0.053682 0.077645 76 153 0
-0.039086 0.901254 -0.013623 76 0 153
0.028326 0.873759 0.087655 153 0 76
-0.267407 -0.055393 -0.042561 76 153 0
-0.269431 -0.212960 -0.063301 76 153 0
0.018363 0.520721 0.132333 153 0 76
-0.222887 -0.119531 0.165862 76 153 0
0.266054 -0.637079 0.076624 76 153 0
-0.238880 0.071959 -0.030246 76 153 0
-0.064994 -0.215634 0.271952 76 153 0
0.260989 -0.041122 -0.066626 76 153 0
-0.249930 -0.233240 0.123695 76 153 0
0.234511 0.094203 0.014930 76 153 0
-0.102664 0.442104 0.105862 153 0 76
0.051779 -0.396582 0.275683 76 153 0
-0.080682 -0.415329 0.267949 76 153 0
-0.172162 -0.024636 0.206247 76 153 0
0.034145 0.618347 0.115981 153 0 76
0.029548 0.658322 0.113907 153 0 76
0.230452 -0.565183 -0.154875 76 153 0
0.073624 -0.428761 0.269910 76 153 0
0.180278 -0.305512 0.215205 76 153 0
0.031972 0.901254 0.037622 76 0 153
-0.254742 -0.044307 -0.085334 76 153 0
-0.018596 0.451245 0.145431 153 0 76
0.182585 0.266121 0.029203 76 153 0
-0.089339 0.839532 0.045654 153 0 76
0.250287 -0.592772 -0.120843 76 153 0
-0.181219 0.204249 -0.085730 76 153 0
0.252931 -0.314303 0.120238 76 153 0
0.085608 0.350870 0.142492 153 0 76
0.153653 -0.014260 -0.216006 76 153 0
-0.240700 -0.600032 -0.134962 76 153 0
0.080330 -0.662337 0.255931 76 153 0
-0.275033 -0.166974 -0.037413 76 153 0
0.006337 0.315911 0.172797 153 0 76
-0.187011 -0.410826 -0.203135 76 153 0
0.022599 -0.573677 -0.275419 76 153 0
0.268820 -0.190950 -0.070778 76 153 0
0.214347 -0.165485 -0.177056 76 153 0
0.156755 0.146424 -0.150225 76 153 0
-0.013662 0.901254 0.030860 76 0 153
0.132488 0.518176 0.009164 153 0 76
-0.128279 0.204899 0.156908 76 153 0
-0.275889 -0.345620 0.036565 76 153 0
0.136764 -0.617287 -0.239718 76 153 0
-0.136510 0.420100 0.064667 153 0 76
-0.140334 0.298914 -0.101445 153 0 76
0.261081 -0.430594 -0.095845 76 153 0
0.065107 -0.076255 -0.263411 76 153 0
-0.158010 0.018489 0.206977 76 153 0
0.115330 0.203819 -0.164015 76 153 0
0.207713 0.139117 -0.074909 76 153 0
-0.086115 0.514627 0.102424 153 0 76
-0.124667 0.206862 -0.155416 76 153 0
-0.108172 0.676656 -0.031408 153 0 76
0.126983 0.163543 -0.170562 76 153 0
-0.066666 -0.002788 0.256772 76 153 0
-0.252138 -0.271833 -0.114942 76 153 0
-0.257323 -0.133653 -0.098817 76 153 0
-0.002722 0.692998 0.114645 153 0 76
0.203936 -0.499565 0.191955 76 153 0
-0.274406 -0.098151 -0.000333 76 153 0
-0.253351 -0.271754 0.116754 76 153 0
0.253218 0.027031 -0.039515 76 153 0
-0.181231 -0.017275 -0.191644 76 153 0
-0.191271 -0.055176 0.193968 76 153 0
0.125014 0.124315 -0.185504 76 153 0
0.088030 0.806581 -0.054277 153 0 76
-0.172522 0.264845 -0.060475 76 153 0
-0.127071 0.358344 -0.099103 153 0 76
-0.132008 0.468187 0.051431 153 0 76
-0.244268 -0.491415 -0.129255 76 153 0
-0.110763 0.636259 0.037869 153 0 76
0.039761 0.943172 0.099084 76 0 153
0.174501 -0.226849 -0.216315 76 153 0
-0.050743 -0.438061 0.275569 76 153 0
-0.234237 -0.426598 -0.146646 76 153 0
0.024706 0.879485 -0.021226 76 0 153
0.086857 0.323832 0.147797 153 0 76
0.059401 -0.645775 -0.264312 76 153 0
0.272059 -0.634841 -0.048565 76 153 0
0.020701 0.901254 -0.001171 76 0 153
-0.213456 0.110849 -0.080584 76 153 0
0.135085 0.046270 0.212439 76 153 0
0.220193 0.038110 0.124859 76 153 0
-0.143864 0.441650 0.024404 153 0 76
0.068833 -0.376292 0.271331 76 153 0
0.233027 -0.051260 0.141258 76 153 0
0.236934 0.019942 0.106808 76 153 0
-0.215489 0.074819 -0.103684 76 153 0
0.077967 0.722921 -0.076880 153 0 76
-0.054376 -0.317709 -0.270639 76 153 0
-0.191430 0.170057 0.091326 76 153 0
-0.193743 0.214066 -0.038241 76 153 0
-0.140118 0.218642 -0.136124 76 153 0
0.242661 0.067629 -0.018040 76 153 0
0.209698 0.060573 0.129311 76 153 0
0.055492 0.195670 -0.194402 76 153 0
-0.101134 -0.154359 -0.256704 76 153 0
0.081930 0.873759 0.045686 153 0 76
0.142011 0.437678 -0.039474 153 0 76
-0.179535 0.144280 0.127021 76 153 0
-0.166629 -0.655963 -0.210935 76 153 0
-0.063017 0.973347 -0.083162 76 0 153
0.277552 -0.255866 0.028047 76 153 0
0.089179 0.500351 -0.100380 153 0 76
0.151870 -0.413717 -0.231460 76 153 0
0.197897 0.045543 -0.152630 76 153 0
-0.206598 0.183902 -0.004028 76 153 0
0.073692 0.120283 -0.211917 76 153 0
-0.064629 0.440663 0.133680 153 0 76
-0.211943 -0.038018 -0.164503 76 153 0
-0.208644 -0.299575 0.185786 76 153 0
0.074935 0.981076 0.056524 76 0 153
0.093252 0.404520 -0.120745 153 0 76
0.089545 -0.224621 -0.261620 76 153 0
0.141963 0.127886 0.176548 76 153 0
-0.052813 0.901254 0.067350 76 0 153
0.221980 -0.378977 0.172237 76 153 0
0.234743 -0.085378 0.145318 76 153 0
-0.098908 -0.532926 -0.258173 76 153 0
-0.244117 -0.233336 -0.129514 76 153 0
-0.276612 -0.312454 -0.023476 76 153 0
0.217799 -0.313144 0.177458 76 153 0
-0.093365 0.382118 -0.125210 153 0 76
0.212422 0.103208 -0.092027 76 153 0
0.014343 -0.044275 0.270546 76 153 0
0.249376 -0.091495 0.121388 76 153 0
0.019578 0.031046 0.256218 76 153 0
-0.127273 0.395989 -0.086178 153 0 76
0.266692 -0.489215 0.082901 76 153 0
0.214846 -0.122735 -0.174258 76 153 0
0.082202 0.994997 -0.057350 76 0 153
0.073504 0.901254 0.034652 76 0 153
-0.236080 0.085331 -0.000050 76 153 0
-0.099275 0.916072 0.034073 76 0 153
-0.089361 0.940394 0.057047 76 0 153
0.265801 -0.462909 0.085142 76 153 0
0.076457 -0.147928 -0.263893 76 153 0
-0.104854 -0.585474 -0.255793 76 153 0
-0.268005 -0.323255 -0.068516 76 153 0
-0.077551 0.780557 0.073478 153 0 76
0.007857 0.631436 0.119262 153 0 76
0.060204 0.376254 -0.145972 153 0 76
-0.075435 0.995062 -0.065246 76 0 153
-0.264536 -0.190164 0.085609 76 153 0
-0.254150 -0.562448 -0.110876 76 153 0
0.073069 0.282702 -0.161737 76 153 0
0.062871 -0.137137 0.271983 76 153 0
-0.086281 0.184087 -0.186432 76 153 0
-0.042057 0.991339 0.033953 76 0 153
-0.264584 -0.232074 -0.081183 76 153 0
0.197693 0.219540 -0.000209 76 153 0
0.018400 -0.199648 0.279982 76 153 0
0.139283 -0.196825 0.243010 76 153 0
-0.056491 0.995589 0.071424 76 0 153
0.197754 -0.628317 0.196201 76 153 0
-0.205203 -0.418428 -0.184942 76 153 0
0.046285 -0.223460 -0.272766 76 153 0
-0.007089 0.901254 -0.030133 76 0 153
-0.094604 -0.341936 -0.259653 76 153 0
0.013173 0.819880 0.103824 153 0 76
0.233292 0.050917 -0.084507 76 153 0
0.276988 -0.588185 -0.034123 76 153 0
0.034066 0.173368 0.210177 76 153 0
0.208293 -0.115606 0.184872 76 153 0
-0.096426 0.097553 0.214394 76 153 0
-0.228264 -0.235398 0.161177 76 153 0
-0.022367 0.931148 -0.104671 76 0 153
-0.218229 -0.193855 0.175165 76 153 0
0.024799 -0.588975 0.279506 76 153 0
-0.088816 -0.313885 0.265479 76 153 0
0.080691 0.643203 -0.082767 153 0 76
0.125255 0.219853 -0.151121 76 153 0
-0.133772 0.432231 -0.060748 153 0 76
-0.078594 -0.583067 0.268272 76 153 0
-0.004404 0.372960 0.161387 153 0 76
0.036728 0.879485 -0.000920 76 0 153
0.095625 0.924902 -0.042417 76 0 153
-0.190713 0.075950 -0.143769 76 153 0
-0.031850 0.321678 0.168625 153 0 76
-0.155561 0.099661 -0.170039 76 153 0
-0.156729 -0.219240 0.231836 76 153 0
-0.203979 -0.118979 -0.183562 76 153 0
-0.225706 0.051487 0.104339 76 153 0
-0.009066 0.901254 0.078097 76 0 153
-0.025194 0.879485 -0.083719 76 0 153
0.050389 0.995589 0.071745 76 0 153
-0.277178 -0.515511 -0.012102 76 153 0
-0.004148 -0.430940 0.279618 76 153 0
0.017413 0.396117 -0.152278 153 0 76
-0.217990 -0.166596 0.175352 76 153 0
-0.264098 -0.018822 -0.008607 76 153 0
-0.215626 -0.647750 0.169588 76 153 0
-0.138376 0.405947 -0.062695 153 0 76
0.191970 -0.455629 0.203458 76 153 0
-0.176043 -0.318209 -0.213696 76 153 0
-0.128212 0.261844 -0.130284 76 153 0
-0.257764 -0.638116 0.096860 76 153 0
