ply
format ascii 1.0
element vertex 1276
property float x
property float y
property float z
property uchar red
property uchar green
property uchar blue
end_header
0.093812 0.983264 -0.015826 76 0 153
-0.392337 0.099276 0.075183 76 153 0
-0.156182 0.890848 0.221242 76 0 153
-0.029606 0.636265 -0.034475 153 0 76
0.380800 -0.114784 0.052992 76 153 0
-0.141831 0.980291 0.093408 76 0 153
0.280401 0.518176 -0.175644 76 153 0
0.361008 -0.125500 -0.228723 76 153 0
0.004346 0.529118 -0.290451 76 153 0
0.390424 0.438623 0.160048 76 153 0
-0.090424 0.194167 -0.365738 76 153 0
-0.074762 0.971177 0.239486 76 0 153
-0.166050 0.805791 0.058474 76 0 153
-0.107407 0.827548 0.224897 153 0 76
-0.106322 0.717456 0.219196 153 0 76
0.383482 0.583135 0.011250 76 153 0
-0.145636 0.618036 -0.101205 76 153 0
-0.185068 0.240144 0.419245 76 153 0
-0.030185 0.745371 0.127589 76 0 153
-0.352639 -0.257262 -0.275100 76 153 0
0.120767 0.198431 0.436278 76 153 0
0.041719 0.645758 -0.025604 153 0 76
-0.394919 -0.170309 -0.114330 76 153 0
-0.225829 0.140791 0.368248 76 153 0
0.057823 -0.771844 -0.012477 76 153 0
0.323996 -0.782359 -0.094342 76 153 0
-0.248337 0.378080 -0.225954 76 153 0
0.214689 0.249664 0.402591 76 153 0
0.392005 0.499955 0.055741 76 153 0
-0.091357 0.979346 0.108559 76 0 153
-0.026133 -0.764976 0.041724 76 153 0
0.133167 0.775232 0.069445 153 0 76
0.374306 -0.153819 0.060854 76 153 0
-0.010728 -0.611416 -0.498853 76 153 0
-0.227503 -0.755547 0.172997 76 153 0
-0.137219 0.489500 0.477223 76 153 0
-0.334398 -0.120928 0.157865 76 153 0
0.050472 0.010864 0.396457 76 153 0
0.384645 0.371298 -0.012223 76 153 0
-0.167292 0.874095 0.193682 76 0 153
0.009704 0.147701 -0.397419 76 153 0
0.215647 0.359612 0.422349 76 153 0
-0.093343 0.753282 0.000798 76 0 153
0.130081 0.826243 0.114389 153 0 76
-0.071273 0.913252 0.258296 153 0 76
0.105825 0.611474 -0.240629 76 153 0
-0.055287 0.152140 -0.389865 76 153 0
0.009838 -0.241756 -0.486661 76 153 0
-0.325634 -0.596503 -0.329606 76 153 0
0.362873 -0.337772 -0.254725 76 153 0
0.111807 -0.770208 0.000699 76 153 0
-0.022092 0.622162 -0.164891 76 153 0
0.319401 -0.786523 -0.120475 76 153 0
-0.290117 -0.414537 0.169181 76 153 0
0.098082 0.614927 -0.037643 153 0 76
-0.221496 0.609004 0.047883 76 153 0
-0.380572 -0.553615 -0.222123 76 153 0
0.355969 -0.454672 -0.277876 76 153 0
-0.231035 -0.572609 -0.425957 76 153 0
0.339188 -0.115481 0.150291 76 153 0
-0.180599 -0.626310 0.253989 76 153 0
-0.303086 0.222913 -0.215297 76 153 0
0.117029 0.747356 0.095767 76 0 153
-0.232960 0.550725 0.429803 76 153 0
-0.354187 0.154732 -0.160414 76 153 0
-0.318458 0.583689 0.290673 76 153 0
0.355565 0.434995 0.272609 76 153 0
-0.392574 0.305633 0.132780 76 153 0
0.326604 -0.778887 0.066639 76 153 0
0.216231 -0.164514 -0.410054 76 153 0
0.319520 -0.228647 0.151487 76 153 0
-0.306574 -0.332261 0.155111 76 153 0
-0.196906 -0.493461 -0.451138 76 153 0
-0.011335 -0.515238 -0.502329 76 153 0
0.020710 0.360135 -0.319817 76 153 0
0.349085 -0.405679 0.085316 76 153 0
0.203846 -0.169071 0.274550 76 153 0
-0.008420 0.965583 0.103577 153 0 76
0.372591 -0.746291 -0.220866 76 153 0
-0.154320 -0.030422 0.352516 76 153 0
0.363391 0.405974 0.249675 76 153 0
0.098199 0.881643 0.279160 76 0 153
-0.283327 -0.638329 -0.380577 76 153 0
0.355842 0.240106 -0.122457 76 153 0
-0.362050 0.007208 0.150131 76 153 0
-0.285241 0.293352 0.355581 76 153 0
0.064180 0.973177 0.207437 76 0 153
0.392065 0.272630 0.015612 76 153 0
0.387079 0.407844 0.005922 76 153 0
-0.293702 -0.803252 -0.350699 76 153 0
-0.348908 0.590960 -0.062177 76 153 0
-0.065035 -0.829445 -0.470390 76 153 0
-0.146751 -0.667031 -0.465783 76 153 0
-0.134845 0.592347 0.314852 76 153 0
-0.097097 -0.143112 0.329254 76 153 0
-0.333407 0.036069 -0.246271 76 153 0
0.064633 0.626246 0.243122 153 0 76
-0.100824 -0.534564 0.279027 76 153 0
0.086062 0.823069 0.175172 153 0 76
-0.090391 0.622998 -0.176392 76 153 0
0.393309 0.299093 0.031918 76 153 0
0.051300 0.810877 -0.009255 153 0 76
-0.372211 0.567551 0.245121 76 153 0
0.189453 -0.272139 -0.442339 76 153 0
0.191651 -0.804187 -0.274029 76 153 0
-0.337100 -0.790556 -0.129961 76 153 0
-0.214417 -0.760625 0.077605 76 153 0
0.019695 0.832404 0.304531 76 0 153
0.046958 -0.699778 -0.487943 76 153 0
0.366129 -0.449096 0.043172 76 153 0
-0.014433 0.578828 0.466426 76 153 0
0.392783 0.320441 0.121684 76 153 0
0.394175 -0.770199 -0.117796 76 153 0
0.024175 0.884418 -0.046473 76 0 153
-0.152764 0.434536 -0.271946 76 153 0
-0.398352 0.070917 -0.008580 76 153 0
0.008549 0.617723 -0.091868 76 153 0
0.255850 -0.357472 -0.402397 76 153 0
-0.352201 0.208451 0.241124 76 153 0
-0.144765 0.726894 0.134701 153 0 76
0.027712 -0.833974 -0.435802 76 153 0
0.169128 -0.293930 -0.453101 76 153 0
-0.143981 -0.621825 0.268941 76 153 0
0.176833 -0.813003 -0.343965 76 153 0
0.306904 -0.178454 -0.328341 76 153 0
0.310846 -0.292437 0.152281 76 153 0
0.192974 0.371685 -0.266729 76 153 0
0.355097 -0.677701 -0.271542 76 153 0
-0.101703 0.302210 -0.323852 76 153 0
-0.006979 -0.759649 0.085721 76 153 0
0.340150 -0.528708 0.099583 76 153 0
-0.316844 0.356467 0.326394 76 153 0
0.053728 0.826851 0.117679 153 0 76
-0.265159 0.073844 -0.317679 76 153 0
0.394165 0.045611 -0.044553 76 153 0
-0.397788 -0.099872 -0.075515 76 153 0
-0.143666 0.873931 0.236530 76 0 153
0.355356 0.596482 0.097172 76 153 0
0.388715 0.575780 0.131372 76 153 0
-0.047576 0.444414 0.494137 76 153 0
-0.212125 0.079366 0.360677 76 153 0
0.160600 0.859450 0.052580 76 0 153
-0.127503 0.053764 0.393583 76 153 0
-0.115156 0.935223 -0.003668 76 0 153
0.257011 -0.014361 0.290454 76 153 0
0.304883 -0.518881 0.145990 76 153 0
-0.326199 -0.331266 0.129517 76 153 0
0.224018 0.064241 0.345185 76 153 0
-0.379626 -0.313597 0.024613 76 153 0
0.136445 -0.007303 0.368132 76 153 0
0.347031 -0.649967 0.094942 76 153 0
-0.287628 0.315480 -0.207307 76 153 0
0.042832 -0.354712 -0.493729 76 153 0
-0.363184 0.302727 0.236338 76 153 0
-0.221236 0.386358 -0.245362 76 153 0
0.366144 -0.771488 -0.233683 76 153 0
-0.218127 0.404105 0.428136 76 153 0
0.392841 0.095688 -0.034209 76 153 0
0.386755 -0.008249 0.062187 76 153 0
-0.375120 -0.814410 -0.138983 76 153 0
-0.199382 -0.546989 -0.449070 76 153 0
-0.329259 -0.136995 -0.293450 76 153 0
0.268930 0.605779 0.095690 76 153 0
0.373277 -0.664531 -0.228797 76 153 0
0.158495 0.613092 0.129900 153 0 76
0.114429 -0.702943 0.289605 76 153 0
0.291508 0.132759 -0.263783 76 153 0
0.096987 -0.800099 -0.240025 76 153 0
0.286863 0.135594 0.312630 76 153 0
-0.028336 0.938916 0.023601 153 0 76
-0.331633 -0.104307 -0.283830 76 153 0
-0.064935 0.812166 -0.004168 153 0 76
0.390730 -0.016994 -0.097673 76 153 0
-0.383372 -0.366097 -0.210239 76 153 0
-0.031757 0.484602 -0.293798 76 153 0
0.340154 -0.746327 0.118690 76 153 0
-0.193115 -0.225338 0.269399 76 153 0
0.118796 -0.787687 -0.140111 76 153 0
-0.328013 -0.486180 0.117881 76 153 0
-0.140838 0.275927 -0.317572 76 153 0
0.328820 0.361765 0.309304 76 153 0
-0.345973 0.240421 0.261909 76 153 0
0.051472 -0.239830 0.311583 76 153 0
0.144036 -0.812490 -0.339797 76 153 0
-0.012841 0.292623 0.475975 76 153 0
0.218509 0.598964 -0.207665 76 153 0
0.188756 0.420116 -0.258300 76 153 0
0.160425 -0.774274 -0.032041 76 153 0
0.253715 0.617737 -0.092091 76 153 0
0.290258 0.606281 -0.110643 76 153 0
0.240729 -0.019741 -0.361259 76 153 0
0.071628 0.176984 0.442700 76 153 0
-0.068043 0.776504 0.251855 153 0 76
0.070849 0.976375 0.156175 76 0 153
-0.062040 -0.092396 0.356022 76 153 0
0.018195 0.561406 0.490779 76 153 0
-0.140890 -0.415568 0.266437 76 153 0
0.314718 0.532355 0.347497 76 153 0
0.330232 -0.441000 0.113837 76 153 0
0.217090 0.501839 0.438065 76 153 0
-0.185828 0.591588 -0.235289 76 153 0
0.126996 0.621511 -0.152560 76 153 0
0.127184 -0.840739 -0.414560 76 153 0
0.381480 -0.021212 -0.151781 76 153 0
-0.136807 -0.673852 0.277611 76 153 0
-0.070232 0.654366 0.243464 153 0 76
-0.115369 0.973152 0.207841 76 0 153
-0.230074 -0.743010 0.236721 76 153 0
-0.259242 0.113120 -0.307288 76 153 0
-0.090943 -0.843011 -0.464623 76 153 0
-0.146575 -0.710482 0.277965 76 153 0
0.116338 0.671198 0.032400 153 0 76
0.083283 0.829288 0.080200 153 0 76
0.394993 0.090770 0.036923 76 153 0
0.125702 0.825319 0.058592 153 0 76
0.395230 0.179900 0.066065 76 153 0
0.223448 -0.782536 -0.411942 76 153 0
0.085823 -0.749579 0.166819 76 153 0
-0.041996 -0.133529 0.342025 76 153 0
-0.128794 0.516869 -0.269657 76 153 0
-0.177740 0.961077 0.156833 76 0 153
-0.381585 -0.454410 0.009813 76 153 0
0.343162 0.541497 -0.091772 76 153 0
-0.154747 -0.211464 -0.449925 76 153 0
0.394463 -0.666135 -0.066661 76 153 0
0.396227 -0.300768 -0.103287 76 153 0
-0.097481 0.297263 0.465357 76 153 0
0.200755 0.570340 0.419539 76 153 0
0.159371 -0.558899 -0.466179 76 153 0
0.044282 0.350028 -0.319275 76 153 0
-0.355058 -0.785947 -0.063861 76 153 0
0.141531 0.767818 0.149620 153 0 76
-0.315240 0.092931 -0.250498 76 153 0
-0.137279 0.589604 0.357629 76 153 0
-0.346160 0.335234 -0.121968 76 153 0
-0.398011 -0.643134 -0.091139 76 153 0
0.180785 0.597583 0.220218 76 153 0
0.299303 -0.103824 0.208871 76 153 0
-0.393815 -0.245113 -0.038370 76 153 0
-0.047000 0.729983 -0.017072 153 0 76
-0.313779 -0.083212 0.199083 76 153 0
-0.326564 0.247821 -0.174807 76 153 0
-0.380937 0.488405 -0.012590 76 153 0
-0.378309 -0.707407 0.031392 76 153 0
-0.188345 0.012835 0.352824 76 153 0
-0.332235 -0.814452 -0.215282 76 153 0
-0.021325 0.741962 0.182225 76 0 153
0.282245 0.609772 0.035573 76 153 0
-0.223357 0.332466 -0.256699 76 153 0
-0.398107 -0.477660 -0.097740 76 153 0
0.368035 -0.300336 0.050377 76 153 0
-0.367122 -0.051597 -0.200977 76 153 0
0.124821 -0.026897 -0.427311 76 153 0
0.303557 -0.788883 -0.144894 76 153 0
-0.055980 -0.753558 0.134775 76 153 0
-0.189423 0.598363 0.218438 76 153 0
0.131683 0.777474 0.003336 76 0 153
0.001282 0.870487 0.128054 153 0 76
0.019982 0.619821 -0.128243 76 153 0
0.110294 -0.407061 -0.485101 76 153 0
0.028590 0.045385 0.411314 76 153 0
0.171764 0.873770 0.178904 76 0 153
0.159097 -0.849614 -0.415520 76 153 0
0.118179 0.605185 0.225465 153 0 76
0.392202 0.135069 -0.024989 76 153 0
-0.260614 -0.732778 -0.390519 76 153 0
0.329114 -0.746881 -0.309070 76 153 0
-0.055104 -0.630275 -0.492758 76 153 0
-0.182892 0.591085 0.333629 76 153 0
-0.207861 -0.020322 -0.387890 76 153 0
0.389863 -0.711355 -0.157930 76 153 0
-0.396380 -0.598245 -0.073982 76 153 0
-0.336212 0.012809 0.206865 76 153 0
0.353682 -0.759261 -0.264978 76 153 0
-0.273075 0.454460 -0.192074 76 153 0
-0.199835 0.310762 0.426095 76 153 0
0.345901 0.047748 0.200953 76 153 0
0.391663 0.245072 0.005090 76 153 0
0.179476 -0.371282 -0.454957 76 153 0
0.256825 -0.808536 -0.290494 76 153 0
-0.129869 -0.849603 -0.423815 76 153 0
0.135337 0.212613 -0.342243 76 153 0
0.013457 -0.200895 0.324502 76 153 0
0.246508 0.597831 0.221594 76 153 0
0.073589 -0.755238 0.121251 76 153 0
0.189063 -0.777854 -0.060869 76 153 0
0.331269 -0.780130 -0.052013 76 153 0
0.008526 0.923937 0.157985 153 0 76
-0.206564 0.612850 -0.013761 76 153 0
-0.277802 0.342231 -0.210539 76 153 0
-0.142469 0.883005 0.160115 153 0 76
-0.136066 0.876074 0.079473 153 0 76
-0.008180 -0.820254 -0.402628 76 153 0
0.158882 0.016639 -0.402276 76 153 0
-0.052033 0.616640 -0.076532 76 153 0
0.077961 -0.427187 0.284105 76 153 0
0.007625 -0.676063 0.303243 76 153 0
-0.030395 -0.471457 -0.500179 76 153 0
-0.224061 -0.287439 -0.421857 76 153 0
-0.147290 0.363448 0.458068 76 153 0
0.273627 -0.612510 0.186705 76 153 0
-0.229985 0.179389 0.375271 76 153 0
-0.241737 0.574165 -0.203053 76 153 0
0.236810 0.268184 -0.263590 76 153 0
0.122500 0.752009 0.021201 76 0 153
0.331631 0.023032 0.214669 76 153 0
0.096382 -0.115692 0.340157 76 153 0
0.045740 0.804051 0.262595 153 0 76
-0.394424 0.567809 0.137535 76 153 0
-0.396971 -0.101147 -0.034124 76 153 0
0.121738 0.756893 0.199012 153 0 76
0.370055 0.264357 -0.079323 76 153 0
0.090907 0.007976 -0.429419 76 153 0
-0.242992 0.602771 0.147792 76 153 0
-0.377446 0.207949 -0.082148 76 153 0
-0.002270 0.748116 0.083594 76 0 153
-0.118915 0.132664 -0.384416 76 153 0
-0.011953 0.393267 -0.312617 76 153 0
-0.311402 -0.181126 0.174142 76 153 0
0.096028 0.812580 -0.024772 76 0 153
-0.328244 -0.621388 0.122956 76 153 0
-0.381822 -0.211562 0.034375 76 153 0
-0.216149 -0.661316 0.237596 76 153 0
0.166729 0.981179 0.079180 76 0 153
-0.042361 0.734900 0.295673 76 0 153
0.318178 -0.459414 -0.339539 76 153 0
-0.070587 -0.382616 -0.492051 76 153 0
0.006285 -0.779347 -0.072900 76 153 0
-0.232656 0.312004 0.402252 76 153 0
-0.280793 -0.313194 -0.379755 76 153 0
0.358978 -0.020975 0.141594 76 153 0
-0.356830 0.545353 0.284039 76 153 0
0.350952 -0.098071 -0.247260 76 153 0
0.325664 0.600948 -0.060544 76 153 0
-0.185264 -0.522068 -0.456828 76 153 0
-0.146006 -0.777272 -0.056189 76 153 0
0.130699 0.358249 0.463687 76 153 0
-0.212627 0.338980 0.422389 76 153 0
0.155211 0.259441 -0.316172 76 153 0
0.037157 -0.813989 -0.351871 76 153 0
-0.291733 -0.293302 0.179371 76 153 0
0.340508 0.502528 -0.100083 76 153 0
-0.065706 0.738505 0.237640 76 0 153
-0.215287 0.565593 0.419487 76 153 0
-0.353391 0.452554 0.283699 76 153 0
-0.397584 -0.333236 -0.078539 76 153 0
0.168901 0.594341 0.277541 76 153 0
0.049554 0.736315 0.272737 76 0 153
-0.397558 0.236190 0.037035 76 153 0
-0.384781 -0.563154 0.000823 76 153 0
0.007745 0.969938 0.259337 76 0 153
-0.031859 0.151679 0.442290 76 153 0
-0.370920 -0.797864 -0.027965 76 153 0
0.391405 -0.331340 -0.151815 76 153 0
0.274357 -0.768158 0.017161 76 153 0
-0.374830 -0.545222 0.026404 76 153 0
0.119508 -0.758162 -0.466621 76 153 0
0.132396 -0.455225 -0.477905 76 153 0
-0.278289 0.350192 0.372725 76 153 0
-0.137813 0.741998 0.181647 76 0 153
-0.239111 -0.791309 -0.169222 76 153 0
-0.088805 0.590385 0.345118 76 153 0
-0.145215 -0.747599 0.282152 76 153 0
0.006652 0.011827 -0.439726 76 153 0
-0.300509 -0.800465 -0.239659 76 153 0
0.296194 0.602207 0.152148 76 153 0
0.175641 -0.081834 0.321961 76 153 0
0.051843 -0.790559 -0.163193 76 153 0
-0.387111 -0.371305 -0.007082 76 153 0
-0.299943 0.306461 0.339819 76 153 0
0.268143 -0.411705 0.188978 76 153 0
-0.374616 0.471331 -0.030417 76 153 0
-0.027778 0.253697 -0.351942 76 153 0
-0.236559 -0.647576 -0.417420 76 153 0
0.275081 -0.103660 0.238725 76 153 0
0.257743 0.463631 0.402822 76 153 0
-0.121189 -0.744337 0.207931 76 153 0
-0.267236 -0.026763 -0.343367 76 153 0
0.368027 0.131356 0.175272 76 153 0
0.238295 0.098576 0.344330 76 153 0
0.069895 0.687025 -0.008422 153 0 76
-0.077300 -0.312377 0.295688 76 153 0
0.375053 -0.809646 -0.203710 76 153 0
-0.162728 -0.468721 0.255201 76 153 0
-0.352745 -0.328480 0.087714 76 153 0
0.387458 -0.247134 -0.171727 76 153 0
-0.318211 -0.598496 0.134279 76 153 0
0.238036 0.181829 -0.293911 76 153 0
0.124745 0.948572 0.005791 76 0 153
-0.388464 -0.329772 -0.184285 76 153 0
0.015203 0.784096 -0.053916 76 0 153
-0.310459 0.297616 -0.182012 76 153 0
-0.198076 0.228042 -0.307928 76 153 0
-0.015337 0.587368 -0.284732 76 153 0
0.021563 0.625565 -0.217620 76 153 0
0.363777 -0.485245 -0.259421 76 153 0
0.391080 -0.457062 -0.161639 76 153 0
-0.054309 0.602242 0.266925 76 153 0
-0.330838 0.364735 -0.138019 76 153 0
-0.010147 -0.104096 0.357784 76 153 0
0.024577 -0.369804 0.295656 76 153 0
0.236480 -0.289362 0.226141 76 153 0
-0.249064 0.454873 0.410330 76 153 0
0.200605 -0.471821 0.237552 76 153 0
0.039551 -0.258810 -0.485473 76 153 0
-0.217497 -0.842947 -0.409605 76 153 0
0.321710 0.444617 -0.132660 76 153 0
0.167473 -0.412737 -0.462117 76 153 0
0.391167 -0.003008 0.030003 76 153 0
-0.176101 0.922450 0.166899 76 0 153
0.087702 -0.777727 -0.059857 76 153 0
0.356897 0.576598 0.239518 76 153 0
-0.361070 -0.001690 -0.202713 76 153 0
0.395398 0.437394 0.121607 76 153 0
-0.015931 -0.743005 0.218658 76 153 0
-0.150281 0.639384 0.096370 153 0 76
-0.010903 0.907496 0.085751 153 0 76
0.067060 0.982938 0.051000 76 0 153
-0.398442 -0.071194 -0.049793 76 153 0
0.046723 0.600011 0.276068 76 153 0
0.380191 0.330763 -0.036467 76 153 0
0.284704 -0.395007 -0.379403 76 153 0
0.094351 0.782359 0.275924 76 0 153
0.286733 0.444711 -0.178206 76 153 0
0.147240 0.614037 -0.039877 76 153 0
0.082768 -0.854745 -0.450113 76 153 0
-0.316561 0.062298 0.252149 76 153 0
0.272453 -0.338113 -0.388017 76 153 0
0.124748 -0.529668 0.270475 76 153 0
-0.233898 -0.106414 -0.387097 76 153 0
-0.040624 -0.692978 0.301847 76 153 0
-0.368076 0.507061 -0.042181 76 153 0
-0.044464 0.485478 0.498390 76 153 0
-0.029520 0.738472 0.238162 76 0 153
-0.164073 -0.115443 0.313687 76 153 0
0.139557 0.372655 -0.289974 76 153 0
-0.133814 -0.373267 0.272774 76 153 0
0.006905 0.967696 0.295270 76 0 153
-0.319964 0.603979 0.123409 76 153 0
0.067371 0.744310 0.144586 76 0 153
-0.284548 0.420974 -0.186739 76 153 0
0.341058 -0.140480 -0.275066 76 153 0
-0.304104 0.033393 -0.286749 76 153 0
-0.025976 -0.740043 0.243170 76 153 0
0.000914 0.642477 0.259665 153 0 76
-0.307549 0.002917 -0.290489 76 153 0
-0.361738 -0.395767 0.060404 76 153 0
0.249828 0.462988 -0.207661 76 153 0
-0.011990 0.584038 0.439624 76 153 0
-0.158209 0.802999 0.211217 76 0 153
-0.318268 0.210307 0.294003 76 153 0
0.107934 0.928753 -0.008371 76 0 153
-0.161410 0.531024 -0.254615 76 153 0
-0.001339 -0.329446 -0.495926 76 153 0
0.326314 0.336869 -0.147880 76 153 0
-0.305985 0.609983 0.032024 76 153 0
0.137642 0.747457 0.163898 153 0 76
-0.076423 -0.291043 -0.484145 76 153 0
0.200123 -0.334569 -0.442097 76 153 0
0.319816 -0.345026 0.134209 76 153 0
0.054593 0.865203 0.299461 76 0 153
-0.376947 0.372980 -0.040567 76 153 0
0.020038 0.096721 -0.415505 76 153 0
0.012752 0.757846 0.266384 153 0 76
0.310997 0.476260 -0.142480 76 153 0
0.282723 -0.652235 -0.378204 76 153 0
-0.312342 -0.239081 0.161232 76 153 0
-0.300497 0.196862 0.314484 76 153 0
-0.238278 -0.479267 0.210655 76 153 0
-0.249671 -0.757100 0.106259 76 153 0
0.065914 0.591336 0.328564 76 153 0
0.045568 -0.115203 0.348508 76 153 0
-0.020397 -0.286688 -0.491169 76 153 0
0.050123 -0.625889 -0.493492 76 153 0
0.178704 0.877675 0.131889 76 0 153
-0.069344 0.754304 -0.005580 153 0 76
0.385607 -0.653784 -0.005528 76 153 0
-0.185882 0.475707 0.455277 76 153 0
0.272228 -0.059758 -0.345737 76 153 0
-0.156966 -0.071791 -0.424459 76 153 0
0.263330 -0.606930 -0.398299 76 153 0
-0.391684 -0.585556 -0.039009 76 153 0
0.049405 0.575724 0.462604 76 153 0
0.289725 -0.276806 -0.364393 76 153 0
-0.361446 0.199991 -0.125175 76 153 0
0.383771 0.076176 -0.106808 76 153 0
0.300199 -0.316057 -0.354940 76 153 0
0.082269 0.310730 0.469841 76 153 0
-0.071607 -0.564242 0.285211 76 153 0
-0.394300 -0.334709 -0.142497 76 153 0
-0.269400 0.092019 0.318771 76 153 0
-0.355218 0.419114 -0.085395 76 153 0
0.200588 0.009821 -0.384427 76 153 0
-0.360242 -0.171577 0.095544 76 153 0
0.174022 0.928832 0.095534 76 0 153
0.180786 -0.091528 -0.417822 76 153 0
-0.091060 0.663454 0.230053 153 0 76
0.052936 0.719444 -0.014667 153 0 76
0.260100 0.608335 0.058583 76 153 0
0.362148 -0.216079 0.077495 76 153 0
0.173578 0.335788 0.441907 76 153 0
-0.232559 0.493649 -0.217972 76 153 0
0.334826 0.332565 0.296144 76 153 0
0.178655 -0.011030 0.347979 76 153 0
-0.114981 0.806898 -0.011809 76 0 153
0.175446 -0.615906 0.254645 76 153 0
0.386457 -0.048427 0.049160 76 153 0
-0.082791 -0.761594 0.285097 76 153 0
-0.129590 0.420011 0.473185 76 153 0
0.393764 -0.226167 -0.120479 76 153 0
-0.398035 -0.456288 -0.111129 76 153 0
-0.280754 -0.372345 0.182261 76 153 0
-0.140762 -0.079746 0.339062 76 153 0
-0.074660 0.301803 -0.329331 76 153 0
-0.347393 0.120697 0.226342 76 153 0
-0.371496 -0.436351 -0.244001 76 153 0
-0.342807 -0.439817 -0.307935 76 153 0
-0.396539 0.384940 0.062029 76 153 0
-0.098975 0.960622 0.284745 76 0 153
-0.012584 -0.252085 -0.487842 76 153 0
-0.147423 -0.568397 -0.471452 76 153 0
-0.384620 -0.691687 -0.199345 76 153 0
0.360949 0.106362 0.184472 76 153 0
-0.158164 -0.281622 -0.457109 76 153 0
0.047027 0.975893 0.163912 76 0 153
-0.081629 -0.794173 -0.192293 76 153 0
-0.373916 -0.400652 -0.236631 76 153 0
0.243745 -0.190408 -0.393004 76 153 0
0.101347 -0.742360 0.222985 76 153 0
-0.067863 -0.733752 0.303181 76 153 0
0.390478 0.281611 0.131016 76 153 0
0.042361 -0.703553 0.302618 76 153 0
0.292926 0.613195 -0.019291 76 153 0
0.021107 -0.489327 -0.501242 76 153 0
-0.273323 0.138938 0.329531 76 153 0
0.392577 -0.100876 -0.104225 76 153 0
-0.338593 0.583797 0.253853 76 153 0
0.210353 0.620768 -0.140669 76 153 0
0.038949 -0.777598 -0.058816 76 153 0
0.003332 -0.076603 -0.459700 76 153 0
-0.043308 0.863351 -0.009711 153 0 76
-0.376369 -0.720341 -0.219084 76 153 0
-0.158877 0.838565 0.211820 76 0 153
0.393294 0.257528 0.103144 76 153 0
-0.383369 0.248319 -0.053405 76 153 0
0.396597 -0.059382 -0.052052 76 153 0
0.370317 -0.546731 0.033108 76 153 0
0.176450 0.955036 0.115653 76 0 153
0.156006 0.318070 -0.297349 76 153 0
-0.217200 -0.232236 -0.420725 76 153 0
0.122941 -0.756624 0.110089 76 153 0
0.070348 0.435980 -0.296338 76 153 0
0.264696 0.501479 0.401215 76 153 0
-0.220402 -0.790055 -0.414619 76 153 0
-0.061888 -0.762085 0.065139 76 153 0
-0.330323 0.180952 -0.192623 76 153 0
-0.239070 0.179234 -0.295460 76 153 0
0.297023 -0.642426 0.163684 76 153 0
-0.387389 0.495911 0.198201 76 153 0
0.131446 -0.200256 -0.457407 76 153 0
-0.236912 -0.734669 -0.408549 76 153 0
0.154230 -0.356043 0.265273 76 153 0
0.229529 -0.779830 -0.076793 76 153 0
-0.321101 0.539993 -0.124120 76 153 0
-0.330220 0.476249 0.324615 76 153 0
-0.053319 0.755991 -0.042617 76 0 153
0.034417 0.393068 0.489460 76 153 0
-0.037390 0.092659 0.425065 76 153 0
0.247863 0.366239 -0.227743 76 153 0
0.139804 -0.763728 0.253470 76 153 0
-0.394067 -0.514240 -0.059460 76 153 0
-0.167324 0.050000 -0.390314 76 153 0
-0.264248 -0.698914 0.204904 76 153 0
-0.109687 0.780997 -0.017495 76 0 153
0.144688 -0.806579 -0.292879 76 153 0
0.334047 0.169249 -0.188879 76 153 0
-0.124081 -0.232399 0.297709 76 153 0
-0.281128 -0.424944 -0.386400 76 153 0
-0.038203 0.879363 -0.045153 76 0 153
-0.255690 0.503978 -0.198856 76 153 0
-0.093868 -0.852362 -0.440238 76 153 0
-0.091223 -0.806442 -0.291848 76 153 0
0.031805 -0.383993 -0.497001 76 153 0
-0.383736 0.206104 0.160943 76 153 0
-0.179272 0.618681 -0.107215 76 153 0
0.283826 0.587016 -0.165612 76 153 0
-0.337227 0.403364 -0.121707 76 153 0
-0.051572 0.977614 0.136320 76 0 153
-0.388320 -0.132733 0.024333 76 153 0
0.396329 0.071051 0.013616 76 153 0
-0.259509 -0.815790 -0.297761 76 153 0
0.207471 -0.596106 0.236259 76 153 0
-0.144109 0.733228 0.099990 153 0 76
-0.288236 0.057676 0.289111 76 153 0
0.066369 0.707260 0.247784 153 0 76
0.091989 -0.798372 -0.469710 76 153 0
-0.137740 -0.119001 0.324204 76 153 0
-0.231258 -0.197059 -0.405000 76 153 0
-0.007164 -0.793315 -0.185384 76 153 0
0.190915 -0.792513 -0.178923 76 153 0
0.277194 0.104463 0.313348 76 153 0
0.130392 0.510894 -0.269074 76 153 0
-0.063257 0.977026 0.018344 153 0 76
-0.390256 0.282089 -0.008848 76 153 0
0.104806 0.754561 -0.019715 76 0 153
0.004897 0.911537 -0.047324 76 0 153
-0.173773 -0.807335 -0.298534 76 153 0
-0.245683 -0.768675 0.013040 76 153 0
0.215895 0.533942 0.441103 76 153 0
0.068703 0.587350 0.393137 76 153 0
0.204880 -0.770274 0.229924 76 153 0
0.136420 0.937801 0.247849 76 0 153
-0.129538 -0.142528 -0.449585 76 153 0
0.387648 -0.294941 -0.012369 76 153 0
0.202435 0.604660 0.111901 76 153 0
-0.148062 0.621001 0.147082 153 0 76
0.063410 0.984437 0.026970 76 0 153
-0.027498 0.372632 -0.316037 76 153 0
-0.319840 -0.012694 0.219866 76 153 0
-0.339718 -0.615155 -0.309561 76 153 0
0.396515 -0.117000 -0.064568 76 153 0
0.304232 -0.766418 0.076275 76 153 0
-0.247477 -0.061294 0.281209 76 153 0
-0.094175 0.889283 -0.022665 76 0 153
0.028500 -0.759942 0.083365 76 153 0
-0.225080 -0.533297 -0.431673 76 153 0
0.164441 -0.200138 -0.443635 76 153 0
0.348839 -0.073377 -0.245935 76 153 0
-0.218633 -0.804861 -0.279465 76 153 0
-0.015647 0.943090 0.277695 153 0 76
-0.116205 0.779300 0.211482 153 0 76
0.062851 -0.717796 0.301699 76 153 0
0.299370 -0.055462 -0.313747 76 153 0
-0.155728 -0.155742 -0.440893 76 153 0
0.203645 0.596134 0.245706 76 153 0
-0.273124 -0.462494 -0.394793 76 153 0
0.034300 0.609710 -0.264321 76 153 0
-0.353383 -0.158552 -0.257699 76 153 0
-0.178136 -0.402756 -0.457966 76 153 0
0.371021 -0.022328 0.109971 76 153 0
-0.062896 -0.775974 -0.045736 76 153 0
0.339070 0.147709 0.246208 76 153 0
-0.393940 -0.080515 -0.102269 76 153 0
0.066298 -0.149611 -0.466361 76 153 0
0.350629 0.263086 -0.128285 76 153 0
-0.007649 -0.457456 0.291522 76 153 0
0.103553 -0.327451 -0.482002 76 153 0
-0.350214 -0.786808 0.015520 76 153 0
0.004632 0.913824 0.276596 153 0 76
0.268768 0.603873 0.124151 76 153 0
0.109153 0.835026 -0.013282 76 0 153
-0.121968 0.567498 -0.267645 76 153 0
0.133792 0.631773 0.169246 153 0 76
0.169764 -0.176070 0.290465 76 153 0
0.388923 0.287560 -0.005164 76 153 0
-0.391593 0.364646 0.020153 76 153 0
0.341182 0.072959 0.218081 76 153 0
-0.110510 0.584297 0.439128 76 153 0
-0.179543 0.501928 -0.250296 76 153 0
0.110506 -0.623655 0.281745 76 153 0
0.163438 0.613100 0.097097 153 0 76
0.344421 -0.598136 0.095700 76 153 0
-0.397340 -0.777444 -0.101858 76 153 0
0.312547 -0.564102 0.137411 76 153 0
0.382260 -0.702369 0.015176 76 153 0
-0.068518 0.344578 -0.317584 76 153 0
0.073331 -0.252325 -0.480236 76 153 0
0.264466 -0.814668 -0.376106 76 153 0
0.372502 -0.531523 -0.238185 76 153 0
-0.395444 0.299697 0.036008 76 153 0
-0.355115 -0.463779 0.073389 76 153 0
0.109908 0.121771 -0.391775 76 153 0
0.097708 0.737772 0.270561 76 0 153
-0.199875 -0.752692 0.141747 76 153 0
-0.183975 0.604402 0.119331 76 153 0
-0.081105 -0.785105 -0.473738 76 153 0
-0.273323 -0.674091 0.194566 76 153 0
-0.385028 -0.074660 0.055856 76 153 0
-0.359376 -0.199490 -0.250239 76 153 0
0.327326 0.418757 -0.129502 76 153 0
-0.382448 -0.053736 -0.162709 76 153 0
-0.040576 0.746758 0.105365 76 0 153
0.388150 -0.493261 -0.029036 76 153 0
0.387280 0.572360 0.171789 76 153 0
-0.394173 -0.117692 -0.016222 76 153 0
-0.295285 -0.191763 0.193305 76 153 0
-0.365103 0.525588 0.262809 76 153 0
-0.034653 0.099996 -0.412817 76 153 0
-0.389232 -0.094976 0.027383 76 153 0
-0.100366 -0.460898 -0.489636 76 153 0
0.118788 0.967919 0.268714 76 0 153
0.355249 -0.153003 -0.248268 76 153 0
0.218166 -0.020696 0.319919 76 153 0
-0.176040 0.612535 0.071348 153 0 76
-0.258557 -0.756749 0.135004 76 153 0
-0.079231 0.592979 0.304717 76 153 0
-0.144266 0.342198 -0.296334 76 153 0
-0.317271 -0.498517 -0.343179 76 153 0
0.135198 0.569758 0.453663 76 153 0
0.158623 0.748318 0.080355 76 0 153
0.117447 0.018082 0.385173 76 153 0
0.033247 0.585749 0.416487 76 153 0
-0.170073 -0.814526 -0.352592 76 153 0
0.092891 0.518999 -0.280484 76 153 0
0.000534 0.881821 0.310142 76 0 153
-0.110225 0.808760 0.266620 76 0 153
-0.185502 0.594161 0.285788 76 153 0
-0.159869 0.944964 0.052207 76 0 153
-0.180773 -0.109831 -0.422149 76 153 0
-0.336668 0.444149 -0.115580 76 153 0
-0.122963 0.840001 0.258777 76 0 153
-0.003414 0.918793 0.114162 153 0 76
-0.163065 0.943773 0.208255 76 0 153
-0.087884 0.986629 -0.008159 76 0 153
-0.127028 0.971003 0.242280 76 0 153
0.282293 -0.783773 -0.364242 76 153 0
0.015317 0.844622 0.157451 153 0 76
-0.360691 0.439029 0.264907 76 153 0
0.023245 -0.303086 0.303971 76 153 0
0.368068 -0.109582 -0.207898 76 153 0
0.384585 -0.154369 -0.169804 76 153 0
-0.054738 0.113916 -0.405542 76 153 0
-0.126787 -0.117962 -0.446243 76 153 0
-0.281829 -0.502879 0.175718 76 153 0
0.130106 0.914896 0.254664 76 0 153
0.394570 -0.164211 -0.101962 76 153 0
0.258272 0.409279 -0.210423 76 153 0
-0.369386 0.236019 -0.093883 76 153 0
0.288424 -0.447292 0.166900 76 153 0
-0.298542 0.596115 0.252970 76 153 0
-0.042095 0.752105 0.019665 76 0 153
0.080133 0.334355 0.474271 76 153 0
0.018035 0.648528 -0.028134 153 0 76
0.184637 -0.055203 0.328659 76 153 0
-0.003577 0.923443 0.312553 76 0 153
-0.072576 0.711261 0.245657 153 0 76
0.059607 -0.149354 0.333393 76 153 0
-0.117485 -0.815598 -0.365549 76 153 0
0.270666 -0.799296 -0.233813 76 153 0
0.382589 -0.213144 0.025430 76 153 0
-0.040238 0.540209 0.502397 76 153 0
-0.380607 0.327285 -0.041243 76 153 0
0.017777 0.439958 0.497352 76 153 0
0.020584 -0.445826 -0.500727 76 153 0
0.363147 0.437110 -0.059074 76 153 0
-0.384208 -0.796434 -0.004469 76 153 0
0.089875 0.751749 0.025359 76 0 153
-0.069294 0.608918 -0.256217 76 153 0
0.383906 0.306112 0.177574 76 153 0
-0.111785 -0.089950 0.347078 76 153 0
-0.134929 -0.509317 0.266360 76 153 0
-0.073911 -0.488094 -0.494658 76 153 0
-0.268358 0.194438 0.348784 76 153 0
-0.033936 -0.508112 -0.499699 76 153 0
0.114590 -0.749044 0.171124 76 153 0
0.063469 0.065101 0.412896 76 153 0
-0.398175 0.444464 0.106510 76 153 0
-0.042868 -0.792972 -0.182623 76 153 0
0.338675 -0.601913 -0.309041 76 153 0
-0.012538 -0.705465 -0.491484 76 153 0
0.318885 -0.194199 -0.314832 76 153 0
-0.179437 0.615998 -0.064214 76 153 0
-0.390527 0.572386 0.057428 76 153 0
-0.396378 -0.629477 -0.071727 76 153 0
-0.182865 -0.752298 0.215818 76 153 0
-0.030533 -0.173167 -0.475254 76 153 0
0.363512 -0.369878 -0.255898 76 153 0
0.089064 0.670487 0.230811 153 0 76
-0.309463 -0.535769 -0.352910 76 153 0
0.238630 0.084383 -0.333894 76 153 0
0.132563 0.802689 0.244455 76 0 153
0.261920 -0.360666 0.197761 76 153 0
0.345752 -0.370092 -0.296025 76 153 0
-0.047275 -0.578227 0.289415 76 153 0
-0.174701 0.881017 0.085319 76 0 153
0.261753 0.346375 -0.221533 76 153 0
-0.396285 -0.116601 -0.092381 76 153 0
-0.261808 0.607179 0.074632 76 153 0
0.149453 -0.068439 -0.426258 76 153 0
0.019775 -0.769160 0.009133 76 153 0
-0.002007 -0.605193 0.295742 76 153 0
0.148354 -0.758039 0.098698 76 153 0
0.092579 0.018066 0.392480 76 153 0
0.053201 -0.527480 0.286095 76 153 0
0.014121 0.474503 -0.296949 76 153 0
0.394695 0.225503 0.083667 76 153 0
-0.039182 0.791861 -0.050484 76 0 153
0.300563 -0.685233 -0.353500 76 153 0
0.375128 0.413764 0.222239 76 153 0
0.276517 -0.133605 -0.357330 76 153 0
0.150585 0.621367 -0.150253 76 153 0
-0.392316 -0.719260 -0.031126 76 153 0
0.059975 -0.532011 -0.495930 76 153 0
-0.022019 -0.770599 -0.002451 76 153 0
-0.316389 -0.092220 -0.301507 76 153 0
0.064188 -0.579423 -0.493993 76 153 0
-0.154728 -0.754596 0.243114 76 153 0
0.150903 0.761534 0.217940 76 0 153
-0.224156 -0.840808 -0.373209 76 153 0
-0.395159 0.530178 0.070052 76 153 0
0.328471 -0.053981 -0.273856 76 153 0
-0.163517 -0.827023 -0.383818 76 153 0
-0.393433 0.428622 0.045254 76 153 0
-0.267781 0.610112 0.030129 76 153 0
0.124449 -0.779648 -0.075324 76 153 0
-0.384518 0.104371 -0.098837 76 153 0
-0.387777 0.053987 -0.105219 76 153 0
0.255165 0.351791 0.390151 76 153 0
0.085056 0.594785 0.280877 76 153 0
0.106666 0.449222 0.484769 76 153 0
-0.322970 0.239090 0.294723 76 153 0
0.097009 0.625069 -0.214145 76 153 0
0.101623 0.819757 0.205274 153 0 76
-0.181339 -0.309799 0.260327 76 153 0
0.085691 -0.818119 -0.385316 76 153 0
0.221320 0.612229 -0.003805 76 153 0
-0.048005 -0.853325 -0.462913 76 153 0
0.360717 0.349203 0.247056 76 153 0
0.076574 0.728098 0.243326 153 0 76
0.340629 -0.024987 0.182066 76 153 0
0.143813 0.618497 0.028838 153 0 76
0.380094 -0.363183 -0.214133 76 153 0
-0.395172 0.022630 -0.060280 76 153 0
-0.369552 -0.672471 0.048514 76 153 0
0.080564 0.585504 0.421827 76 153 0
-0.011212 0.759741 -0.056177 76 0 153
-0.214766 -0.766710 0.028259 76 153 0
-0.391486 0.473307 0.168567 76 153 0
-0.355469 0.375455 -0.092914 76 153 0
0.166721 0.460988 -0.260853 76 153 0
0.292231 0.390146 0.361266 76 153 0
-0.208487 -0.238881 0.257681 76 153 0
0.210969 -0.490880 -0.441364 76 153 0
0.056718 0.297906 -0.332763 76 153 0
0.388761 -0.371509 -0.175243 76 153 0
0.383501 -0.809845 -0.090586 76 153 0
0.114007 0.978295 0.125410 76 0 153
0.293930 0.428968 0.364480 76 153 0
0.357718 -0.629515 -0.269052 76 153 0
0.107239 0.826810 0.120225 153 0 76
0.198758 -0.755724 0.117335 76 153 0
0.334239 -0.172422 -0.290436 76 153 0
-0.392022 -0.467503 -0.167056 76 153 0
-0.327272 -0.049369 -0.277203 76 153 0
-0.352144 -0.308297 -0.281729 76 153 0
-0.107498 -0.027061 -0.433918 76 153 0
0.286363 0.311687 -0.207653 76 153 0
0.394841 0.380091 0.060626 76 153 0
-0.302672 -0.725026 0.168122 76 153 0
0.008232 -0.782212 -0.097003 76 153 0
-0.006911 0.971326 0.146552 153 0 76
-0.280835 -0.013666 -0.327850 76 153 0
-0.362024 0.355633 0.249213 76 153 0
-0.391336 -0.023486 -0.107643 76 153 0
-0.156425 0.459441 0.466291 76 153 0
0.337090 0.349119 -0.129963 76 153 0
-0.271515 -0.125294 -0.361264 76 153 0
0.190287 0.236908 -0.308084 76 153 0
-0.211779 0.605660 0.098176 76 153 0
-0.094557 -0.787913 -0.141876 76 153 0
-0.313624 -0.153728 0.177621 76 153 0
0.283027 -0.526073 -0.383940 76 153 0
0.265370 -0.520310 -0.399654 76 153 0
-0.082722 0.774094 0.003570 153 0 76
-0.239156 -0.815574 -0.320684 76 153 0
-0.124919 0.623720 0.001953 153 0 76
-0.092182 0.044765 0.402052 76 153 0
-0.340859 -0.273576 0.117382 76 153 0
0.075611 0.274639 -0.337747 76 153 0
0.259459 0.091735 0.324971 76 153 0
-0.023360 0.862523 0.306142 76 0 153
0.384556 0.228442 -0.046237 76 153 0
-0.046487 0.566224 0.477216 76 153 0
-0.046039 0.988305 -0.035029 76 0 153
0.372717 -0.081025 -0.189848 76 153 0
-0.187695 -0.560166 0.246332 76 153 0
0.298950 -0.178746 0.188676 76 153 0
-0.280380 -0.161329 0.217906 76 153 0
0.394546 -0.371322 -0.070917 76 153 0
-0.090258 0.512247 0.494006 76 153 0
0.375018 -0.783008 -0.210849 76 153 0
-0.107214 -0.339715 0.286273 76 153 0
0.371117 -0.578293 -0.239980 76 153 0
-0.164995 -0.786184 -0.128866 76 153 0
0.387116 0.337760 -0.006251 76 153 0
0.021640 -0.598853 -0.498713 76 153 0
0.348588 -0.462397 0.083605 76 153 0
0.352141 0.114183 -0.177707 76 153 0
0.179870 0.155630 -0.346203 76 153 0
0.290620 -0.792123 -0.175840 76 153 0
-0.359124 0.506972 -0.063871 76 153 0
-0.166610 0.966999 0.069888 76 0 153
0.065201 -0.807932 -0.472849 76 153 0
-0.109602 -0.805029 -0.465077 76 153 0
-0.056019 -0.234739 -0.480435 76 153 0
-0.148355 -0.808579 -0.308300 76 153 0
-0.326053 0.182537 0.276210 76 153 0
-0.140436 0.594839 0.274921 76 153 0
0.171416 0.534018 0.465244 76 153 0
-0.105850 -0.636495 -0.483831 76 153 0
0.013217 -0.754471 0.127424 76 153 0
0.240422 -0.793126 -0.183856 76 153 0
-0.133549 -0.386651 -0.475637 76 153 0
0.376851 -0.582591 0.019134 76 153 0
0.023640 -0.642917 0.297982 76 153 0
-0.239806 -0.763073 0.057048 76 153 0
-0.052450 -0.527887 -0.497134 76 153 0
0.327480 -0.314586 -0.318853 76 153 0
-0.380235 -0.221108 -0.202877 76 153 0
0.259357 -0.758953 0.091090 76 153 0
0.145692 0.124319 0.406076 76 153 0
-0.241576 0.610272 0.027567 76 153 0
0.126502 0.731091 0.051777 153 0 76
-0.351411 -0.539795 0.082054 76 153 0
0.025960 0.131818 -0.402924 76 153 0
0.382952 0.487813 -0.000814 76 153 0
0.015520 -0.041279 0.382303 76 153 0
0.063785 -0.070976 -0.451800 76 153 0
0.384639 -0.799746 -0.039656 76 153 0
0.218860 -0.449783 -0.434989 76 153 0
0.143143 0.731144 0.109565 153 0 76
0.396259 -0.549014 -0.115998 76 153 0
-0.076141 -0.111516 -0.458334 76 153 0
0.392192 -0.281231 -0.043645 76 153 0
-0.110081 -0.225042 -0.469231 76 153 0
0.323128 -0.561350 -0.332012 76 153 0
0.111244 -0.756807 0.291162 76 153 0
-0.311927 -0.041886 0.219082 76 153 0
-0.375800 -0.353305 -0.228983 76 153 0
-0.360730 -0.590585 -0.268443 76 153 0
0.058595 -0.294071 0.300684 76 153 0
-0.173410 -0.660527 0.260821 76 153 0
0.248811 0.614292 -0.036863 76 153 0
-0.113742 -0.182794 0.312640 76 153 0
-0.393260 0.130164 -0.032173 76 153 0
0.374276 -0.257741 0.041173 76 153 0
0.384043 -0.805647 -0.180609 76 153 0
-0.232757 -0.016227 -0.367912 76 153 0
0.022136 0.510387 0.503024 76 153 0
0.073013 -0.647975 0.292212 76 153 0
-0.047308 -0.497500 0.286717 76 153 0
0.109468 0.587742 0.383338 76 153 0
0.347706 -0.215977 -0.275736 76 153 0
-0.377987 0.334508 0.206277 76 153 0
-0.259716 -0.519846 -0.405302 76 153 0
-0.294815 0.518438 -0.160673 76 153 0
-0.158811 0.168625 -0.350736 76 153 0
0.396693 0.238271 0.063295 76 153 0
-0.100985 0.949167 0.237863 153 0 76
0.071726 -0.672021 -0.487169 76 153 0
0.077405 -0.022468 -0.439314 76 153 0
0.212205 -0.667824 -0.433029 76 153 0
-0.156355 -0.375017 -0.465496 76 153 0
-0.092325 0.751332 0.032047 76 0 153
0.026210 0.982683 0.055076 76 0 153
-0.135977 0.832059 0.178914 153 0 76
0.349087 -0.702009 -0.282627 76 153 0
0.307994 0.266399 0.318202 76 153 0
-0.019298 0.774398 -0.020377 153 0 76
-0.212173 -0.823312 -0.356078 76 153 0
0.382142 0.104703 0.128254 76 153 0
-0.125992 0.200511 0.435366 76 153 0
0.170367 -0.536410 -0.462161 76 153 0
-0.061602 -0.343138 0.293932 76 153 0
0.292049 -0.492349 0.162195 76 153 0
0.131929 0.808439 0.179903 153 0 76
-0.382775 -0.141892 0.045079 76 153 0
-0.239153 0.014781 -0.355080 76 153 0
-0.293785 0.269815 -0.212633 76 153 0
-0.119460 0.281227 -0.324887 76 153 0
-0.397400 -0.490339 -0.123266 76 153 0
0.144268 -0.109687 -0.436864 76 153 0
0.264762 0.428123 0.393601 76 153 0
-0.014170 -0.799894 -0.238371 76 153 0
0.385567 0.129507 -0.076818 76 153 0
-0.020292 0.709998 0.263136 153 0 76
0.085179 -0.749850 -0.476741 76 153 0
0.194626 -0.369664 0.246361 76 153 0
-0.141443 0.200662 -0.345012 76 153 0
0.182595 -0.617580 -0.453501 76 153 0
0.150321 0.606086 -0.233612 76 153 0
0.065315 0.216208 -0.360548 76 153 0
0.364476 0.000889 0.136265 76 153 0
0.177904 0.853162 0.136453 76 0 153
0.372764 0.414582 -0.039332 76 153 0
0.304566 0.607012 0.077078 76 153 0
0.171608 -0.552441 0.252028 76 153 0
0.036532 0.985726 0.006311 76 0 153
0.052100 0.784484 -0.047217 76 0 153
0.396203 -0.713375 -0.080572 76 153 0
0.134179 0.258308 -0.325768 76 153 0
0.222960 -0.085724 -0.390180 76 153 0
-0.398305 -0.278428 -0.095887 76 153 0
-0.339751 0.607985 0.014097 76 153 0
0.377062 -0.270501 -0.212568 76 153 0
-0.071038 0.621453 -0.045441 153 0 76
-0.225196 0.466341 0.429833 76 153 0
-0.104360 0.262854 -0.335943 76 153 0
0.314337 -0.741637 -0.329055 76 153 0
0.371080 -0.329314 -0.233705 76 153 0
0.221213 -0.498792 0.222303 76 153 0
-0.309336 -0.532076 0.142625 76 153 0
-0.128241 -0.424860 -0.479465 76 153 0
-0.037713 -0.005832 -0.440724 76 153 0
0.224414 -0.682575 0.232398 76 153 0
-0.397696 0.473417 0.084627 76 153 0
0.356729 0.051757 -0.192400 76 153 0
-0.106316 0.739034 0.229147 76 0 153
0.065858 -0.757338 0.304185 76 153 0
-0.386887 -0.481822 -0.200999 76 153 0
0.395685 0.429087 0.076681 76 153 0
-0.238999 -0.012796 0.307238 76 153 0
-0.377777 -0.504561 -0.229774 76 153 0
-0.107889 0.985616 0.008077 76 0 153
-0.394613 0.332267 0.122579 76 153 0
-0.249839 0.090260 0.333993 76 153 0
0.268824 -0.308991 -0.388418 76 153 0
0.017748 0.740667 0.202978 76 0 153
0.393413 -0.720552 -0.052012 76 153 0
0.308455 0.060966 0.260469 76 153 0
0.296586 -0.301946 0.169454 76 153 0
-0.379258 -0.609815 0.019026 76 153 0
-0.158363 -0.754578 0.126564 76 153 0
-0.057866 0.687651 -0.015251 153 0 76
-0.129960 -0.615490 -0.476506 76 153 0
0.296629 0.159490 0.307101 76 153 0
-0.094401 0.823503 0.015884 153 0 76
-0.079952 0.830251 0.287432 76 0 153
0.195539 0.559009 0.444029 76 153 0
-0.280359 0.262272 0.354265 76 153 0
-0.342347 -0.262751 -0.295309 76 153 0
0.046754 -0.806537 -0.292566 76 153 0
0.291405 0.348051 -0.191938 76 153 0
0.388303 -0.074368 -0.132009 76 153 0
-0.212862 0.056376 -0.364303 76 153 0
0.266645 -0.164215 0.227594 76 153 0
0.395859 -0.078016 -0.068775 76 153 0
-0.176575 0.585367 0.410649 76 153 0
0.313605 -0.768685 0.049363 76 153 0
-0.076382 0.983296 0.045253 76 0 153
0.305676 0.242318 -0.202989 76 153 0
-0.082924 0.825692 -0.032530 76 0 153
-0.203852 -0.615386 0.241581 76 153 0
0.290409 -0.762385 -0.357451 76 153 0
-0.081679 0.040438 -0.423119 76 153 0
0.380156 -0.795272 0.010709 76 153 0
-0.129511 0.223092 -0.341335 76 153 0
0.151555 0.576505 0.435301 76 153 0
0.173317 -0.764153 -0.443742 76 153 0
-0.301837 -0.455176 -0.362782 76 153 0
-0.081331 -0.571076 -0.492223 76 153 0
-0.389302 0.250392 0.144840 76 153 0
0.041154 -0.841540 -0.471605 76 153 0
0.100722 0.643222 0.218680 153 0 76
-0.002669 0.442893 -0.303012 76 153 0
-0.142489 0.981972 0.066478 76 0 153
-0.175817 0.870348 0.165811 76 0 153
-0.000415 -0.730394 0.310180 76 153 0
-0.122333 0.352329 0.466842 76 153 0
0.002199 0.980967 0.082582 76 0 153
0.220464 -0.613177 -0.430877 76 153 0
0.106529 0.248044 0.452206 76 153 0
-0.025074 -0.058637 0.374873 76 153 0
0.235366 0.181590 0.370122 76 153 0
-0.392406 -0.082123 0.006490 76 153 0
0.020228 0.591165 0.328559 76 153 0
0.389390 -0.368191 -0.033101 76 153 0
0.391207 -0.678116 -0.040359 76 153 0
0.310590 0.191243 0.297066 76 153 0
0.109340 0.097047 0.413093 76 153 0
-0.361647 -0.332294 0.066126 76 153 0
-0.157096 0.744415 0.142909 76 0 153
-0.349192 -0.254122 0.105898 76 153 0
0.362107 -0.585661 0.054939 76 153 0
0.278420 -0.787669 -0.139975 76 153 0
-0.230680 0.592014 0.318234 76 153 0
-0.026377 -0.669484 -0.493570 76 153 0
-0.203590 0.377273 -0.260250 76 153 0
-0.276881 -0.789375 -0.153650 76 153 0
0.233471 -0.561453 0.214299 76 153 0
-0.180148 -0.849058 -0.404320 76 153 0
-0.370940 0.197748 0.191880 76 153 0
0.342767 -0.784910 -0.005124 76 153 0
0.295330 -0.823289 -0.343492 76 153 0
0.017810 0.584313 0.435647 76 153 0
-0.041623 0.415972 -0.304470 76 153 0
-0.018175 -0.752442 0.143760 76 153 0
-0.279545 -0.113702 0.231554 76 153 0
0.134740 0.822227 0.091961 153 0 76
-0.364478 -0.714263 -0.248793 76 153 0
0.341030 -0.318328 0.108447 76 153 0
-0.342249 -0.389719 -0.306678 76 153 0
0.321568 0.152934 0.271820 76 153 0
0.391673 0.071380 -0.054563 76 153 0
0.171684 -0.482338 -0.462030 76 153 0
0.282096 -0.768524 0.129127 76 153 0
0.340252 -0.827074 -0.226355 76 153 0
0.144675 0.383660 0.461339 76 153 0
0.135217 0.674782 0.164376 153 0 76
0.359303 0.503579 -0.059815 76 153 0
-0.282253 -0.601870 0.179351 76 153 0
-0.145210 0.684573 0.123429 153 0 76
0.374768 0.279529 0.198670 76 153 0
-0.060029 -0.756333 0.112434 76 153 0
-0.258614 -0.313302 0.207029 76 153 0
0.358453 0.589567 -0.039985 76 153 0
0.114008 0.400920 0.476157 76 153 0
-0.138113 -0.837672 -0.449900 76 153 0
-0.122002 -0.588649 -0.481014 76 153 0
0.115700 0.619494 -0.121103 76 153 0
-0.111923 -0.750418 0.250686 76 153 0
-0.335991 0.311983 -0.143737 76 153 0
-0.397967 -0.711813 -0.091264 76 153 0
0.021081 0.971268 0.238035 76 0 153
-0.036924 0.198935 0.453392 76 153 0
0.126260 -0.171268 -0.455155 76 153 0
0.394064 -0.300220 -0.060406 76 153 0
-0.128898 0.614277 -0.043133 76 153 0
0.218874 0.020355 -0.368182 76 153 0
-0.382631 -0.727916 0.022401 76 153 0
-0.383898 0.347381 -0.027240 76 153 0
0.170746 0.164109 0.406281 76 153 0
0.360513 0.163503 0.203942 76 153 0
0.031349 0.741937 0.182627 76 0 153
0.298046 -0.377509 -0.362327 76 153 0
-0.361676 0.468228 0.265891 76 153 0
-0.041174 0.587773 0.382817 76 153 0
0.176948 0.894834 0.115682 76 0 153
-0.068143 0.810479 0.253171 153 0 76
-0.330211 0.498629 -0.116661 76 153 0
-0.325845 -0.463715 0.120979 76 153 0
-0.151225 -0.781788 -0.093383 76 153 0
-0.388316 -0.531524 -0.193040 76 153 0
0.385158 -0.072911 0.047529 76 153 0
0.036613 -0.441217 0.289163 76 153 0
-0.325388 -0.200205 0.151459 76 153 0
0.312898 0.046949 -0.268504 76 153 0
-0.000792 0.174123 -0.386080 76 153 0
0.395612 0.163838 0.016503 76 153 0
-0.261574 0.501548 0.404913 76 153 0
0.283839 -0.592923 0.175315 76 153 0
-0.102933 0.655774 0.011194 153 0 76
0.182680 -0.042631 -0.406541 76 153 0
0.262804 -0.380149 -0.398414 76 153 0
-0.333899 0.586875 -0.100099 76 153 0
-0.323219 -0.005205 -0.271604 76 153 0
0.389665 -0.350435 -0.166747 76 153 0
-0.233896 -0.095774 0.278003 76 153 0
0.372416 -0.046668 0.096356 76 153 0
-0.234494 -0.357734 -0.420066 76 153 0
-0.272932 0.424926 0.388312 76 153 0
-0.027998 -0.813790 -0.350267 76 153 0
-0.068698 -0.770094 0.001620 76 153 0
-0.170334 0.330247 0.443145 76 153 0
-0.273454 0.307676 -0.223631 76 153 0
-0.013993 0.585915 0.402954 76 153 0
-0.197387 -0.778198 -0.063651 76 153 0
-0.025440 0.222378 -0.364029 76 153 0
0.138813 -0.237068 -0.459314 76 153 0
0.372090 -0.433894 -0.238298 76 153 0
0.193687 0.453339 0.448835 76 153 0
0.080708 0.192750 -0.367905 76 153 0
0.236207 -0.200044 0.243129 76 153 0
-0.293024 -0.739838 0.182379 76 153 0
0.175046 0.831634 0.097262 76 0 153
-0.390562 -0.472867 -0.032853 76 153 0
0.009415 0.617977 -0.061019 76 153 0
-0.394882 0.050026 0.035728 76 153 0
0.159158 0.183702 0.416153 76 153 0
0.263160 -0.113607 -0.364497 76 153 0
0.115257 0.156581 0.428018 76 153 0
-0.058428 -0.323794 -0.489613 76 153 0
0.321333 -0.798879 -0.188612 76 153 0
0.136733 0.802538 0.011494 76 0 153
-0.369070 -0.008198 0.125588 76 153 0
0.176364 0.591422 0.323773 76 153 0
0.235559 0.589671 0.346438 76 153 0
0.097100 -0.550513 0.280065 76 153 0
0.391062 -0.764555 -0.141059 76 153 0
-0.089776 -0.581251 0.283459 76 153 0
-0.217600 0.138224 -0.330947 76 153 0
0.006645 -0.805265 -0.479804 76 153 0
-0.236233 -0.410692 -0.421732 76 153 0
-0.395195 0.215673 0.011627 76 153 0
0.393568 -0.378235 -0.138986 76 153 0
-0.352132 -0.747414 0.099475 76 153 0
-0.142693 -0.220692 0.292386 76 153 0
-0.310273 -0.776850 -0.052797 76 153 0
-0.162096 0.746855 0.103802 76 0 153
-0.394632 0.237606 0.100266 76 153 0
0.169191 -0.753936 0.131725 76 153 0
0.307013 -0.008628 0.236812 76 153 0
-0.310665 0.593791 -0.120429 76 153 0
0.032802 0.110588 0.430721 76 153 0
-0.056009 0.053864 0.410472 76 153 0
0.299839 -0.809959 -0.259964 76 153 0
-0.049473 0.644210 0.251769 153 0 76
0.133156 0.459987 0.475307 76 153 0
0.134372 0.982795 0.053271 76 0 153
0.325418 0.199666 -0.190158 76 153 0
0.258084 -0.764198 0.047990 76 153 0
-0.386239 0.146222 0.131613 76 153 0
-0.398297 0.519900 0.106381 76 153 0
0.396440 -0.412684 -0.104189 76 153 0
0.158282 0.807837 0.043755 76 0 153
0.375663 0.169662 0.167977 76 153 0
-0.138518 0.792799 0.170193 153 0 76
0.008945 0.624973 -0.236632 76 153 0
-0.142408 -0.824132 -0.391406 76 153 0
-0.331197 0.038113 0.223331 76 153 0
0.339988 0.540549 0.314163 76 153 0
-0.393504 0.157779 0.085755 76 153 0
-0.080086 0.363455 -0.311280 76 153 0
-0.357084 0.142474 0.210589 76 153 0
0.250356 -0.128328 0.250670 76 153 0
-0.234677 0.616798 -0.077023 76 153 0
-0.337011 -0.241816 0.128067 76 153 0
0.136563 -0.087999 -0.435758 76 153 0
0.070741 0.841652 -0.035914 76 0 153
0.267556 -0.767466 0.151883 76 153 0
-0.056113 -0.677232 -0.489016 76 153 0
0.238112 0.266883 0.387496 76 153 0
-0.250791 0.372012 0.398321 76 153 0
-0.097925 0.854564 0.278935 76 0 153
0.018319 0.975602 0.168571 76 0 153
0.002824 0.813301 -0.053727 76 0 153
0.176990 0.810004 0.140713 76 0 153
0.299921 -0.716355 0.168183 76 153 0
0.261474 0.600908 0.172284 76 153 0
-0.386889 0.276301 0.165899 76 153 0
0.128892 0.844645 0.251866 76 0 153
-0.375253 0.275262 0.200543 76 153 0
-0.358169 0.035929 -0.198769 76 153 0
-0.081353 -0.630041 0.289293 76 153 0
0.388180 -0.538967 -0.181647 76 153 0
-0.159931 -0.536430 0.256729 76 153 0
-0.087024 0.089351 0.416853 76 153 0
-0.395486 -0.756742 -0.121920 76 153 0
0.385389 0.028561 0.084914 76 153 0
-0.323403 -0.572423 0.125818 76 153 0
-0.039770 0.114223 0.430997 76 153 0
0.271969 0.615910 -0.062797 76 153 0
0.322129 0.578985 0.299946 76 153 0
0.024744 0.877345 0.216889 153 0 76
-0.202147 -0.063426 0.316714 76 153 0
-0.315501 0.278977 0.313555 76 153 0
0.236145 -0.765755 0.182999 76 153 0
0.380638 -0.481250 0.006990 76 153 0
0.159793 -0.844873 -0.437895 76 153 0
0.275345 0.526721 0.394230 76 153 0
-0.132996 -0.525983 -0.478514 76 153 0
0.203914 0.072795 -0.364958 76 153 0
-0.043396 0.612558 -0.258111 76 153 0
0.070688 -0.797916 -0.222428 76 153 0
-0.090717 -0.741316 0.235872 76 153 0
0.048056 0.420571 0.491121 76 153 0
-0.389405 0.409020 0.175553 76 153 0
0.358148 -0.729642 0.078207 76 153 0
-0.190983 0.359377 0.438706 76 153 0
0.349397 -0.781336 -0.272213 76 153 0
-0.065762 -0.430229 -0.494691 76 153 0
-0.360600 -0.279826 0.075221 76 153 0
-0.351843 0.530017 -0.078699 76 153 0
0.390781 -0.773676 -0.026645 76 153 0
0.192940 -0.754450 -0.435743 76 153 0
0.020991 0.920572 0.204923 153 0 76
-0.000764 0.131162 0.439044 76 153 0
-0.021674 -0.586117 0.293422 76 153 0
-0.241584 0.224184 0.377149 76 153 0
0.113787 0.068247 -0.406994 76 153 0
0.008855 -0.764957 0.041874 76 153 0
0.390621 -0.212957 -0.021487 76 153 0
0.047841 0.747054 0.100624 76 0 153
0.372813 -0.291569 -0.225601 76 153 0
0.002426 -0.419381 0.293367 76 153 0
0.169705 -0.763971 0.049813 76 153 0
