ply
format ascii 1.0
element vertex 1276
property float x
property float y
property float z
property uchar red
property uchar green
property uchar blue
end_header
0.152536 0.583395 0.417982 76 153 0
0.075832 0.108375 -0.402012 76 153 0
-0.106445 -0.784698 -0.136369 76 153 0
-0.252813 -0.044288 -0.355816 76 153 0
-0.032327 -0.203794 0.319439 76 153 0
-0.392232 -0.629898 -0.059358 76 153 0
-0.328547 -0.773221 -0.043944 76 153 0
0.357555 -0.577650 0.059015 76 153 0
0.342876 -0.551985 -0.302924 76 153 0
0.124354 0.182270 0.428542 76 153 0
-0.129571 0.825066 0.251886 76 0 153
-0.040413 0.383739 0.485207 76 153 0
0.236784 -0.110211 0.264631 76 153 0
-0.360206 -0.044373 -0.209753 76 153 0
0.213277 0.455336 -0.233922 76 153 0
0.161045 -0.179046 0.290702 76 153 0
0.161407 -0.761692 0.244141 76 153 0
0.389718 0.049018 0.043760 76 153 0
-0.021582 0.122703 0.433406 76 153 0
0.223396 0.545639 -0.214906 76 153 0
-0.102769 0.521103 0.491064 76 153 0
0.089907 -0.824204 -0.437458 76 153 0
-0.377507 -0.792860 0.030924 76 153 0
0.017916 0.820103 0.267730 153 0 76
-0.255224 0.595252 -0.149353 76 153 0
0.246009 0.350367 0.394209 76 153 0
-0.012465 0.987267 -0.018394 76 0 153
-0.097334 0.966932 0.181759 153 0 76
0.229860 -0.531637 -0.423668 76 153 0
-0.080750 -0.293086 0.295604 76 153 0
0.172932 0.844752 0.081998 76 0 153
-0.125613 0.175693 0.427040 76 153 0
-0.044622 -0.792457 -0.195462 76 153 0
-0.153376 0.772803 0.217541 76 0 153
-0.316440 -0.548274 0.129689 76 153 0
0.312813 0.186632 -0.208222 76 153 0
-0.241941 -0.064154 0.281227 76 153 0
0.271196 0.084224 -0.305581 76 153 0
-0.119323 0.753118 0.003418 76 0 153
-0.225606 0.114333 0.357530 76 153 0
-0.131136 0.046503 0.387088 76 153 0
0.370328 0.200396 -0.091728 76 153 0
0.260491 -0.512678 0.189226 76 153 0
-0.390737 -0.036225 0.012332 76 153 0
-0.066255 0.580404 0.461101 76 153 0
0.125112 -0.738254 0.237643 76 153 0
0.011934 -0.406451 -0.498406 76 153 0
0.303172 -0.777765 0.118563 76 153 0
-0.089833 -0.539238 -0.489677 76 153 0
0.208577 0.166602 -0.321185 76 153 0
0.160298 0.742175 0.178816 76 0 153
-0.375988 -0.238264 -0.209379 76 153 0
-0.059303 0.971029 0.116101 153 0 76
0.073190 0.324954 0.471536 76 153 0
0.267528 0.594343 -0.134784 76 153 0
-0.030500 -0.549134 0.287568 76 153 0
-0.338033 0.406964 -0.115686 76 153 0
0.091952 0.234189 0.451532 76 153 0
-0.029912 -0.822961 -0.444497 76 153 0
-0.390523 0.521007 0.053421 76 153 0
0.127697 0.287546 -0.315848 76 153 0
-0.322514 0.002271 -0.266430 76 153 0
0.079696 0.400436 -0.299629 76 153 0
-0.041148 -0.561864 -0.495516 76 153 0
0.336852 0.605310 0.066745 76 153 0
-0.301910 -0.792976 -0.203033 76 153 0
0.389525 0.266523 0.014101 76 153 0
0.395912 -0.473372 -0.105127 76 153 0
0.150924 0.442232 -0.267794 76 153 0
-0.110315 -0.097967 0.342392 76 153 0
-0.397103 -0.096241 -0.061661 76 153 0
-0.391205 -0.708834 -0.043259 76 153 0
-0.165561 -0.818612 -0.409476 76 153 0
0.143240 0.750154 0.050932 76 0 153
-0.217710 -0.711744 -0.422896 76 153 0
-0.142326 0.935550 0.117821 153 0 76
0.268590 -0.126867 -0.359826 76 153 0
-0.148960 -0.079261 0.332897 76 153 0
0.055858 -0.644874 -0.488935 76 153 0
-0.156156 0.319761 -0.294463 76 153 0
0.333249 -0.413386 0.107050 76 153 0
-0.343706 -0.631485 0.099482 76 153 0
0.366662 -0.608737 -0.242978 76 153 0
0.319935 0.100901 -0.233429 76 153 0
-0.044229 0.740173 0.257711 76 0 153
0.058129 0.133603 -0.394980 76 153 0
0.139782 -0.375590 0.266626 76 153 0
-0.286878 0.272806 -0.216883 76 153 0
0.254014 -0.065596 0.269251 76 153 0
-0.236849 0.614749 -0.084548 76 153 0
0.139972 0.601522 0.133964 153 0 76
-0.041066 0.867568 -0.045511 76 0 153
-0.023246 -0.701551 0.302923 76 153 0
0.117454 0.089213 -0.397203 76 153 0
-0.093090 0.601341 -0.246943 76 153 0
0.335726 0.205309 -0.169842 76 153 0
0.306423 -0.053228 -0.299767 76 153 0
-0.249590 -0.775624 -0.063293 76 153 0
0.309190 -0.819812 -0.322108 76 153 0
0.025334 0.970907 0.243811 76 0 153
-0.032139 0.332641 0.478479 76 153 0
0.000253 0.744738 0.137741 76 0 153
0.383422 -0.515733 -0.010319 76 153 0
-0.131712 -0.267083 0.285188 76 153 0
-0.382301 -0.153986 -0.179801 76 153 0
0.068613 0.982916 0.051350 76 0 153
-0.387949 0.265648 -0.011295 76 153 0
-0.190175 0.588449 0.336980 76 153 0
0.207828 0.482394 -0.234029 76 153 0
0.253008 0.069542 0.320364 76 153 0
0.034449 0.170341 -0.381579 76 153 0
0.171086 -0.512179 -0.459528 76 153 0
0.123905 0.790333 0.053492 153 0 76
-0.391224 -0.271395 -0.139575 76 153 0
0.311201 0.028354 -0.272117 76 153 0
0.077097 0.937992 0.294662 76 0 153
0.128966 -0.817007 -0.396552 76 153 0
0.000771 0.898069 0.137125 153 0 76
-0.226172 -0.623237 0.222559 76 153 0
-0.089540 0.590172 0.309366 76 153 0
-0.388441 0.074739 -0.072341 76 153 0
0.107430 -0.764812 0.027165 76 153 0
-0.284472 -0.312375 -0.373155 76 153 0
0.094195 0.819859 0.191374 153 0 76
-0.344874 0.587475 -0.024694 76 153 0
0.018205 -0.012773 0.390518 76 153 0
-0.193475 0.590206 0.308814 76 153 0
0.380209 -0.033283 -0.153217 76 153 0
-0.063841 0.928803 0.261352 153 0 76
0.324022 0.238200 -0.174710 76 153 0
0.256717 0.577987 -0.187027 76 153 0
0.387556 0.224158 -0.013205 76 153 0
0.241219 0.560108 0.413913 76 153 0
-0.101427 -0.842476 -0.434147 76 153 0
-0.043646 0.668802 -0.019706 153 0 76
-0.305576 0.611219 -0.027968 76 153 0
-0.195864 0.479530 0.449375 76 153 0
-0.156776 0.802475 0.214653 76 0 153
0.383538 -0.465164 -0.011069 76 153 0
-0.390841 -0.548404 -0.156389 76 153 0
-0.210828 -0.766233 0.012333 76 153 0
-0.167354 0.964849 0.071553 76 0 153
0.283625 -0.771292 -0.028411 76 153 0
-0.244940 0.588628 0.334105 76 153 0
-0.164322 -0.596161 -0.460593 76 153 0
-0.236541 -0.183287 -0.395689 76 153 0
-0.385051 -0.565649 -0.008881 76 153 0
0.222725 -0.435269 -0.428501 76 153 0
0.169019 0.826283 0.182580 76 0 153
-0.231768 0.611274 -0.028847 76 153 0
0.313612 -0.351021 0.137551 76 153 0
-0.394055 0.314240 0.103764 76 153 0
0.383130 -0.103108 -0.159645 76 153 0
-0.122246 0.775892 0.255327 76 0 153
0.105886 0.745316 0.128472 76 0 153
0.020264 0.826236 0.089169 153 0 76
0.260860 0.026828 -0.330106 76 153 0
-0.207223 -0.432445 -0.441551 76 153 0
0.234553 -0.029208 0.299967 76 153 0
-0.384872 -0.289742 -0.190633 76 153 0
-0.370099 -0.346440 -0.236013 76 153 0
0.217320 0.609845 -0.005944 76 153 0
-0.233554 0.401886 0.412787 76 153 0
0.099770 0.736606 0.268071 76 0 153
0.106160 0.621410 0.208561 153 0 76
0.140129 0.636074 0.134920 153 0 76
0.081092 0.169648 -0.375156 76 153 0
-0.165653 -0.191419 0.286394 76 153 0
-0.112361 -0.518731 -0.484418 76 153 0
0.390284 -0.381480 -0.058549 76 153 0
0.169723 0.948670 0.188515 76 0 153
0.369198 -0.252598 0.047822 76 153 0
0.392527 -0.689991 -0.120775 76 153 0
0.281846 0.446224 -0.181073 76 153 0
-0.324385 -0.626707 0.124307 76 153 0
0.395872 -0.052822 -0.045688 76 153 0
-0.179774 0.927066 0.126800 76 0 153
0.365474 -0.674586 0.048228 76 153 0
0.228140 0.194767 -0.293398 76 153 0
-0.145634 0.981653 0.071579 76 0 153
0.002141 -0.760211 -0.484498 76 153 0
0.368637 0.342361 -0.056839 76 153 0
0.362676 -0.025515 -0.194930 76 153 0
0.063118 0.680660 -0.010208 153 0 76
-0.203893 0.390592 -0.254626 76 153 0
-0.284649 0.471442 0.379728 76 153 0
-0.397600 0.537385 0.108807 76 153 0
0.302520 -0.227524 0.169802 76 153 0
0.100134 -0.618955 -0.484953 76 153 0
-0.388076 -0.814373 -0.152028 76 153 0
0.005550 -0.800145 -0.260760 76 153 0
0.060140 -0.119059 0.342565 76 153 0
0.170903 -0.850140 -0.430344 76 153 0
0.394156 0.035943 -0.028219 76 153 0
0.162776 0.279474 0.433734 76 153 0
0.294284 -0.011007 -0.305655 76 153 0
0.259766 -0.556526 0.191026 76 153 0
-0.044162 -0.412209 0.287336 76 153 0
-0.143043 0.770440 0.133549 153 0 76
0.102642 0.252510 -0.338622 76 153 0
0.388146 0.506342 0.165699 76 153 0
-0.335879 -0.594805 -0.312272 76 153 0
0.001466 -0.812736 -0.362155 76 153 0
0.298455 0.451524 0.357648 76 153 0
-0.198191 -0.666825 -0.441813 76 153 0
0.006749 0.266083 0.469485 76 153 0
0.250714 0.562586 0.374196 76 153 0
-0.360256 -0.554397 0.055375 76 153 0
-0.053384 -0.812701 -0.361872 76 153 0
-0.246314 0.246345 -0.261131 76 153 0
-0.086700 0.965016 0.021637 153 0 76
-0.058542 0.751882 0.023228 76 0 153
-0.263153 -0.796250 -0.229392 76 153 0
-0.250952 -0.452915 -0.408588 76 153 0
0.357579 -0.787033 -0.144174 76 153 0
-0.064653 0.340201 0.475389 76 153 0
-0.206605 0.143195 -0.334524 76 153 0
-0.009790 -0.323222 0.300728 76 153 0
-0.389036 -0.639483 -0.034273 76 153 0
-0.002245 0.674120 0.260895 153 0 76
-0.081146 0.956037 0.294784 76 0 153
-0.327382 0.597337 0.194529 76 153 0
-0.128953 0.596085 0.214594 153 0 76
0.117481 -0.022934 -0.426939 76 153 0
0.210954 0.616482 -0.112322 76 153 0
-0.081621 -0.550150 0.280890 76 153 0
0.290857 -0.530935 0.160211 76 153 0
-0.110983 -0.820546 -0.425053 76 153 0
0.038861 0.592398 0.273687 76 153 0
-0.015943 -0.597101 0.292386 76 153 0
0.253116 -0.620171 0.200354 76 153 0
0.392263 0.245445 0.088347 76 153 0
0.287352 -0.185350 -0.351181 76 153 0
-0.132832 -0.066190 -0.430777 76 153 0
0.222750 -0.121834 -0.394632 76 153 0
0.005275 0.886398 -0.048843 76 0 153
0.253546 -0.570685 -0.404407 76 153 0
0.020713 0.313907 0.476714 76 153 0
-0.082251 -0.752395 0.123764 76 153 0
0.341558 0.446764 0.300617 76 153 0
-0.267851 0.415937 0.388124 76 153 0
-0.372096 -0.714243 -0.223847 76 153 0
0.337049 -0.804707 -0.287470 76 153 0
-0.284859 0.351725 -0.198118 76 153 0
-0.098096 -0.638983 0.285504 76 153 0
-0.231975 -0.633990 -0.418886 76 153 0
0.075745 0.600920 -0.240193 76 153 0
-0.365406 0.449828 -0.049083 76 153 0
0.087539 0.546724 -0.276299 76 153 0
0.243863 0.598210 0.180526 76 153 0
-0.356741 -0.306692 -0.264455 76 153 0
-0.265090 -0.780335 -0.101234 76 153 0
0.056067 -0.799159 -0.252823 76 153 0
-0.361146 0.077702 -0.167069 76 153 0
-0.349826 0.493770 0.290720 76 153 0
0.141233 0.669770 0.105290 153 0 76
0.031563 0.583257 0.420184 76 153 0
-0.390495 0.577336 0.137789 76 153 0
0.192958 0.535152 -0.237693 76 153 0
-0.196826 -0.658350 0.248221 76 153 0
0.328270 -0.786952 -0.154518 76 153 0
-0.352450 -0.431944 0.074221 76 153 0
-0.054279 0.810918 -0.045340 76 0 153
0.307441 -0.622715 -0.345713 76 153 0
0.062458 0.820872 0.293430 76 0 153
-0.098008 -0.481340 -0.489156 76 153 0
-0.394077 0.285994 0.097000 76 153 0
-0.171588 -0.363920 -0.455825 76 153 0
-0.166855 0.951144 0.199547 76 0 153
-0.369926 0.398105 -0.046390 76 153 0
0.064811 0.092619 0.418494 76 153 0
0.367114 0.288483 0.213282 76 153 0
-0.284205 0.049436 0.287973 76 153 0
-0.225901 0.468449 -0.223240 76 153 0
-0.396537 -0.373169 -0.109502 76 153 0
0.384121 -0.341065 -0.008249 76 153 0
-0.183242 -0.747588 0.264799 76 153 0
-0.141546 0.685303 0.139592 153 0 76
-0.286243 0.515793 -0.168068 76 153 0
-0.387030 -0.431875 -0.024327 76 153 0
0.089149 -0.785912 -0.146141 76 153 0
-0.390873 0.007502 0.030300 76 153 0
-0.342150 -0.820219 -0.220442 76 153 0
-0.353649 0.199960 -0.138497 76 153 0
-0.047230 0.889492 -0.004447 153 0 76
-0.068582 -0.300131 -0.483581 76 153 0
0.245637 0.204173 -0.275497 76 153 0
0.104537 -0.308959 -0.478734 76 153 0
0.198791 -0.776254 -0.068372 76 153 0
0.083219 0.588176 0.341357 76 153 0
-0.393837 -0.038368 -0.072226 76 153 0
0.053416 -0.507238 0.283287 76 153 0
-0.015704 0.909846 0.273835 153 0 76
0.217127 -0.842236 -0.406231 76 153 0
0.007117 -0.347754 0.297611 76 153 0
-0.219285 -0.165449 -0.406047 76 153 0
0.280655 -0.087135 -0.341637 76 153 0
-0.171884 0.276867 -0.300760 76 153 0
0.164066 0.617671 -0.131368 76 153 0
0.368288 -0.356594 0.037172 76 153 0
-0.382177 0.481625 -0.004206 76 153 0
0.025690 0.343913 0.480968 76 153 0
0.387199 -0.212344 -0.149276 76 153 0
-0.152273 -0.336430 -0.462119 76 153 0
-0.363578 -0.778618 -0.013152 76 153 0
0.092373 -0.246830 0.301989 76 153 0
-0.109103 0.620986 -0.184506 76 153 0
0.359866 0.038077 0.156817 76 153 0
-0.146902 -0.384807 0.263442 76 153 0
-0.055995 0.628850 0.245888 153 0 76
0.082782 0.014563 -0.426952 76 153 0
-0.299724 0.332811 0.340976 76 153 0
0.086587 -0.269509 -0.477986 76 153 0
-0.094320 0.308345 -0.321926 76 153 0
-0.260064 0.505708 0.403673 76 153 0
-0.107429 0.399855 0.477306 76 153 0
0.331883 0.233114 0.275079 76 153 0
-0.255207 -0.543747 0.195191 76 153 0
0.090247 -0.337524 0.287924 76 153 0
0.253951 -0.764455 0.026648 76 153 0
-0.287300 -0.026491 -0.320995 76 153 0
-0.393623 -0.699007 -0.123785 76 153 0
-0.385111 0.167789 -0.063812 76 153 0
-0.017059 0.615354 -0.094238 76 153 0
0.161344 0.964755 0.060953 76 0 153
-0.377888 -0.481639 -0.223335 76 153 0
0.211278 0.590807 -0.221093 76 153 0
0.073718 0.979423 0.107324 76 0 153
0.163819 -0.307902 -0.454004 76 153 0
0.051230 -0.100793 -0.457154 76 153 0
0.232502 0.066967 0.336079 76 153 0
-0.034578 -0.797119 -0.236395 76 153 0
0.129997 0.479230 -0.270526 76 153 0
0.065435 -0.172107 -0.467775 76 153 0
-0.344833 0.353672 -0.117128 76 153 0
0.355609 0.362721 0.255704 76 153 0
0.145874 0.310012 -0.301143 76 153 0
-0.389180 -0.199660 -0.144407 76 153 0
-0.338899 0.521883 0.313373 76 153 0
0.382833 -0.631759 -0.200162 76 153 0
-0.296296 0.036377 -0.292195 76 153 0
-0.060040 0.480681 0.493578 76 153 0
-0.255444 0.039554 -0.332101 76 153 0
0.082003 -0.750669 -0.475053 76 153 0
-0.379536 -0.614594 0.012321 76 153 0
0.039990 -0.149490 0.332122 76 153 0
-0.141412 0.807412 0.102845 153 0 76
-0.119734 -0.718049 -0.469501 76 153 0
-0.324881 -0.715594 -0.316385 76 153 0
0.092797 0.460406 -0.286570 76 153 0
-0.364187 -0.802235 -0.232292 76 153 0
0.323439 0.491220 0.328812 76 153 0
-0.388920 -0.086826 0.012498 76 153 0
0.245890 -0.791225 -0.188929 76 153 0
-0.011238 0.497202 0.501606 76 153 0
-0.139257 0.271860 0.442823 76 153 0
0.386994 -0.195361 -0.009664 76 153 0
-0.128644 -0.403916 0.269628 76 153 0
-0.003089 0.340384 -0.325119 76 153 0
-0.030290 -0.284428 0.303810 76 153 0
-0.252585 -0.724750 -0.394476 76 153 0
0.348194 -0.760294 -0.272375 76 153 0
0.376365 0.281434 0.188750 76 153 0
0.108204 -0.102049 0.340901 76 153 0
-0.069370 -0.471079 -0.492766 76 153 0
-0.213530 -0.012571 -0.379004 76 153 0
-0.233204 0.439951 0.417997 76 153 0
-0.351297 0.601488 0.127996 76 153 0
0.394269 -0.122470 -0.077421 76 153 0
-0.314703 -0.269509 0.148659 76 153 0
0.363605 -0.406992 0.044800 76 153 0
-0.087423 0.986760 -0.010263 76 0 153
0.198411 -0.828750 -0.422349 76 153 0
-0.369333 -0.182449 0.064402 76 153 0
-0.142324 0.222900 0.431084 76 153 0
-0.066302 0.911992 0.004883 153 0 76
0.180781 -0.076179 -0.411920 76 153 0
0.069963 0.729917 -0.004297 153 0 76
-0.337955 -0.525264 -0.311937 76 153 0
0.336264 0.418600 0.303906 76 153 0
0.315595 0.552958 -0.124208 76 153 0
0.359652 -0.318913 0.061788 76 153 0
0.254827 0.215927 0.360291 76 153 0
-0.142287 0.415688 -0.277216 76 153 0
0.377247 -0.201603 0.036929 76 153 0
0.285450 0.564770 0.339196 76 153 0
-0.136814 -0.677292 0.275425 76 153 0
-0.093637 0.918422 -0.021260 76 0 153
0.162526 -0.356787 -0.458461 76 153 0
-0.088357 0.738653 0.235254 153 0 76
0.108798 -0.419746 -0.484072 76 153 0
0.347422 -0.128635 0.126853 76 153 0
-0.151951 0.622123 -0.202726 76 153 0
0.060644 -0.672855 0.294221 76 153 0
-0.368857 -0.182996 -0.217924 76 153 0
0.111325 -0.754691 0.105279 76 153 0
-0.306690 0.431948 -0.152815 76 153 0
0.130949 0.227382 0.436266 76 153 0
-0.387969 -0.477300 -0.032634 76 153 0
0.178346 0.846261 0.132659 76 0 153
0.168862 0.032284 -0.391275 76 153 0
-0.165823 -0.778729 -0.088299 76 153 0
0.392215 0.363144 0.056882 76 153 0
-0.082894 0.820361 0.285594 76 0 153
-0.095341 -0.808333 -0.326696 76 153 0
-0.037014 0.967852 0.292777 76 0 153
0.135872 0.650242 0.157798 153 0 76
0.129744 0.535322 0.480313 76 153 0
-0.313257 0.103449 -0.244146 76 153 0
-0.050248 0.086943 0.418988 76 153 0
-0.397501 -0.526519 -0.106301 76 153 0
-0.301744 0.453184 0.355638 76 153 0
0.031901 0.845348 0.303729 76 0 153
0.006674 -0.752673 0.311250 76 153 0
0.344404 0.561503 -0.084375 76 153 0
-0.118519 0.472320 -0.277122 76 153 0
-0.055297 0.582590 0.430875 76 153 0
-0.339993 -0.783337 0.063376 76 153 0
0.124907 -0.807192 -0.317510 76 153 0
0.295039 -0.221529 -0.346511 76 153 0
0.048496 0.979489 0.106276 76 0 153
-0.287958 -0.830486 -0.350748 76 153 0
0.002249 0.555914 0.481127 76 153 0
-0.262997 0.608679 0.012743 76 153 0
-0.376603 0.209469 -0.076916 76 153 0
0.169101 0.916368 0.188004 76 0 153
0.142213 0.799814 0.120834 153 0 76
-0.308408 -0.199732 -0.328006 76 153 0
-0.375752 0.042166 -0.144634 76 153 0
-0.344658 -0.644478 -0.297273 76 153 0
-0.352731 0.396721 -0.088869 76 153 0
-0.124220 -0.620410 -0.476088 76 153 0
0.331061 0.057735 -0.236922 76 153 0
0.011156 0.912594 0.176788 153 0 76
0.394296 0.554623 0.096960 76 153 0
-0.108520 0.608825 0.010396 153 0 76
0.216545 0.597426 0.193097 76 153 0
0.092741 0.015467 0.389819 76 153 0
0.314374 -0.584679 0.131909 76 153 0
0.383070 -0.403023 -0.005087 76 153 0
-0.119826 0.236444 0.443794 76 153 0
0.015482 0.619345 -0.158207 76 153 0
0.384300 0.342026 0.172118 76 153 0
0.022197 -0.737089 0.247027 76 153 0
-0.095796 0.806744 0.018762 153 0 76
0.174903 0.529176 0.461224 76 153 0
0.145842 0.973331 0.204961 76 0 153
-0.344927 0.083886 -0.207220 76 153 0
0.290286 0.599494 0.159955 76 153 0
0.301016 0.086731 -0.266983 76 153 0
0.355609 0.106477 -0.164939 76 153 0
-0.392338 0.439037 0.138609 76 153 0
0.033229 -0.560734 0.287521 76 153 0
-0.354134 0.214194 0.231623 76 153 0
-0.155261 0.594954 0.232712 76 153 0
0.153535 -0.119676 0.313217 76 153 0
0.275339 -0.041005 -0.335961 76 153 0
-0.322141 -0.830064 -0.268675 76 153 0
0.139441 0.604396 0.087622 153 0 76
0.121828 0.019420 0.381187 76 153 0
-0.364053 -0.629312 0.050946 76 153 0
-0.299069 -0.699130 -0.352123 76 153 0
-0.018186 0.581763 0.444133 76 153 0
0.271259 -0.754543 0.106469 76 153 0
0.259004 -0.742166 0.210073 76 153 0
-0.352750 -0.610347 -0.280390 76 153 0
0.010987 0.897538 0.309744 76 0 153
0.082821 0.976060 0.161233 76 0 153
0.035801 0.837361 0.266439 153 0 76
0.391425 0.413886 0.129679 76 153 0
-0.363878 -0.670207 -0.248719 76 153 0
0.393928 -0.798143 -0.096885 76 153 0
-0.027746 -0.817021 -0.396661 76 153 0
-0.138702 0.492892 0.474397 76 153 0
-0.315146 0.254398 0.304575 76 153 0
-0.100690 -0.205695 -0.468225 76 153 0
-0.179953 -0.458410 0.245774 76 153 0
-0.180170 0.583270 0.419988 76 153 0
0.060642 -0.791384 -0.190208 76 153 0
-0.172315 -0.425808 0.250180 76 153 0
-0.331458 -0.758697 0.079691 76 153 0
0.090250 0.266641 0.458411 76 153 0
0.378323 -0.258481 0.024514 76 153 0
0.104956 -0.750392 0.139896 76 153 0
0.296798 -0.092687 -0.321345 76 153 0
-0.300612 0.505078 -0.150324 76 153 0
0.103690 -0.055101 0.361941 76 153 0
0.375971 -0.471212 0.012568 76 153 0
-0.091108 0.299069 0.464946 76 153 0
0.132894 0.586777 0.363766 76 153 0
0.231440 0.242400 -0.273198 76 153 0
0.299057 -0.282061 -0.348991 76 153 0
0.134887 -0.218899 0.292587 76 153 0
-0.070717 -0.671352 -0.485038 76 153 0
0.083231 0.376833 0.478422 76 153 0
0.215256 0.311554 -0.264223 76 153 0
-0.073839 0.641537 -0.008444 153 0 76
-0.289566 0.466101 -0.169871 76 153 0
-0.142491 0.953990 0.149188 153 0 76
-0.086968 -0.780221 -0.100312 76 153 0
-0.382738 -0.351627 0.006620 76 153 0
0.388995 -0.736401 -0.142235 76 153 0
0.148109 0.598992 0.168002 153 0 76
-0.365207 0.386013 0.240064 76 153 0
0.216586 -0.170252 -0.407699 76 153 0
0.196759 0.598398 0.177518 76 153 0
0.341023 0.325576 0.282814 76 153 0
0.284254 -0.471936 0.168654 76 153 0
0.345522 0.302387 -0.123866 76 153 0
-0.292430 -0.755462 0.099073 76 153 0
0.392753 0.215660 0.076498 76 153 0
-0.338304 -0.017834 -0.250556 76 153 0
-0.017259 0.271707 -0.344370 76 153 0
0.132114 -0.243236 0.288695 76 153 0
-0.218272 0.244197 -0.284560 76 153 0
0.174672 0.957726 0.102284 76 0 153
-0.361228 -0.681988 0.063351 76 153 0
-0.088818 0.257741 -0.339206 76 153 0
-0.289151 0.533735 0.378946 76 153 0
-0.064872 0.748468 0.077952 76 0 153
0.394172 0.414412 0.080819 76 153 0
0.345648 -0.181487 -0.270417 76 153 0
0.209288 -0.524688 -0.439490 76 153 0
0.126209 0.632349 0.049199 153 0 76
0.245623 -0.086276 -0.369348 76 153 0
0.040574 0.586562 0.367221 76 153 0
-0.054736 -0.237105 -0.478537 76 153 0
-0.141872 -0.754445 0.107256 76 153 0
-0.326536 -0.305810 0.127976 76 153 0
0.187003 0.128027 -0.352507 76 153 0
-0.306735 -0.811072 -0.287668 76 153 0
0.316530 0.566201 0.316269 76 153 0
0.189714 -0.609597 -0.448801 76 153 0
-0.391883 -0.263821 -0.045857 76 153 0
-0.389754 0.283099 0.007561 76 153 0
-0.169922 0.978931 0.115214 76 0 153
0.080961 0.851986 0.287693 76 0 153
0.083706 0.195531 -0.363685 76 153 0
-0.396492 -0.609914 -0.110443 76 153 0
0.182873 -0.229019 0.270219 76 153 0
0.341762 0.571333 0.234003 76 153 0
0.042038 -0.263961 -0.483323 76 153 0
0.265964 0.521568 0.398885 76 153 0
-0.209115 -0.747790 0.160848 76 153 0
0.003213 0.795433 0.304398 76 0 153
0.056865 0.780021 -0.045518 76 0 153
-0.380660 -0.278339 0.020127 76 153 0
0.331266 -0.456608 -0.318352 76 153 0
0.112283 0.981436 0.075071 76 0 153
0.112992 0.978533 0.121590 76 0 153
-0.284354 -0.772871 -0.041122 76 153 0
0.018992 0.121928 -0.405928 76 153 0
0.393818 -0.009068 -0.015198 76 153 0
0.265618 0.603929 0.088869 76 153 0
-0.076876 -0.799113 -0.249062 76 153 0
0.217182 -0.254424 0.243815 76 153 0
-0.255502 -0.289448 -0.394854 76 153 0
-0.068131 -0.819431 -0.416069 76 153 0
-0.094248 0.108740 0.419590 76 153 0
-0.046266 -0.636283 0.292044 76 153 0
0.379629 0.095342 -0.106861 76 153 0
-0.210333 -0.787262 -0.157012 76 153 0
0.312799 0.446189 -0.140282 76 153 0
-0.297672 -0.285138 0.168634 76 153 0
-0.114550 0.827179 0.212565 153 0 76
-0.131230 0.606239 0.055757 153 0 76
-0.268993 0.594350 0.242392 76 153 0
0.073297 -0.565879 -0.490891 76 153 0
-0.250059 0.559945 0.414734 76 153 0
-0.230582 0.492984 -0.216341 76 153 0
-0.122268 0.557383 0.457588 76 153 0
0.179594 0.168024 -0.337776 76 153 0
0.219222 0.012572 -0.367053 76 153 0
-0.342043 -0.301245 0.108239 76 153 0
0.387584 -0.165426 -0.008035 76 153 0
-0.335856 0.609119 0.005689 76 153 0
0.360399 -0.550608 -0.260720 76 153 0
-0.126642 -0.676184 -0.470729 76 153 0
-0.118862 0.979544 0.001948 76 0 153
0.386345 -0.572801 -0.177037 76 153 0
0.145925 0.980523 0.034602 76 0 153
-0.397002 -0.784074 -0.087603 76 153 0
0.197594 0.209455 0.403790 76 153 0
-0.276427 0.114668 0.316943 76 153 0
-0.233171 -0.418032 0.213465 76 153 0
0.288531 0.255282 0.338152 76 153 0
-0.092186 -0.416236 -0.488328 76 153 0
0.263174 -0.011698 0.283168 76 153 0
0.064391 -0.393076 -0.490767 76 153 0
-0.387367 0.298351 0.152122 76 153 0
-0.030470 0.576465 -0.281753 76 153 0
-0.208973 0.277098 0.410972 76 153 0
-0.211730 -0.426239 0.229408 76 153 0
0.266861 -0.774929 0.175327 76 153 0
0.053771 -0.021100 -0.439638 76 153 0
0.139245 -0.107974 -0.436074 76 153 0
0.127169 0.617777 0.176852 153 0 76
-0.135345 0.279296 -0.315893 76 153 0
-0.035806 -0.343444 -0.491664 76 153 0
-0.042026 0.602128 -0.259556 76 153 0
-0.166034 0.263473 0.429874 76 153 0
0.184098 0.261828 0.421247 76 153 0
-0.269103 -0.797824 -0.372893 76 153 0
-0.135550 0.900170 0.084560 153 0 76
0.027899 0.823370 0.135101 153 0 76
0.136762 0.600729 -0.237127 76 153 0
0.390769 0.091090 -0.033217 76 153 0
0.112211 0.615239 -0.092394 76 153 0
0.065779 0.822986 -0.039138 76 0 153
-0.147619 0.183853 -0.346215 76 153 0
0.288270 -0.777230 -0.076228 76 153 0
-0.388534 -0.303285 -0.025544 76 153 0
0.114591 0.937648 0.270052 76 0 153
0.394573 -0.645126 -0.109784 76 153 0
0.159476 -0.797097 -0.236214 76 153 0
0.099568 -0.045444 -0.439153 76 153 0
-0.147754 -0.765602 0.017414 76 153 0
-0.142402 0.702480 0.103861 153 0 76
0.390755 0.032911 -0.057628 76 153 0
-0.298528 -0.773634 -0.343954 76 153 0
0.144079 0.097690 0.396711 76 153 0
-0.388058 -0.013606 -0.110735 76 153 0
0.008738 -0.125694 0.347111 76 153 0
-0.249956 -0.751105 0.134153 76 153 0
-0.375154 0.439291 0.223393 76 153 0
0.309511 0.402369 0.336889 76 153 0
-0.105211 -0.251907 0.298939 76 153 0
0.197896 -0.330348 -0.441940 76 153 0
-0.063920 0.031378 -0.425594 76 153 0
0.139265 0.754502 0.095650 153 0 76
-0.350982 0.326838 -0.108174 76 153 0
0.109372 0.426596 -0.288238 76 153 0
-0.191819 0.028390 -0.383215 76 153 0
0.164830 0.783508 0.190045 76 0 153
-0.301430 0.191385 -0.224520 76 153 0
-0.390874 -0.750465 -0.138588 76 153 0
0.022155 0.738006 -0.019609 153 0 76
0.335354 -0.764903 0.023038 76 153 0
0.348431 0.598563 0.174880 76 153 0
-0.126006 -0.760923 0.288110 76 153 0
-0.310235 -0.141928 0.180828 76 153 0
-0.247591 0.513071 -0.200672 76 153 0
0.224467 0.363509 -0.243484 76 153 0
0.245271 -0.388243 -0.409301 76 153 0
0.360625 0.386539 0.247361 76 153 0
-0.046095 0.755370 -0.032670 76 0 153
-0.047519 0.204076 -0.365498 76 153 0
0.189013 -0.040681 0.329686 76 153 0
0.359600 -0.348125 0.059038 76 153 0
-0.210277 0.223849 0.398455 76 153 0
-0.364302 0.258863 0.217362 76 153 0
-0.280711 0.284998 0.356530 76 153 0
-0.179674 -0.791180 -0.188565 76 153 0
0.346829 0.263622 0.257672 76 153 0
-0.101679 -0.505894 0.277146 76 153 0
-0.388768 -0.624290 -0.168023 76 153 0
0.020857 0.911150 0.212903 153 0 76
0.232079 0.173793 0.367668 76 153 0
-0.068565 -0.346365 -0.487533 76 153 0
0.290585 0.111540 -0.270544 76 153 0
0.141487 0.687251 0.127735 153 0 76
-0.159334 0.057678 0.378588 76 153 0
0.197870 0.330618 -0.272886 76 153 0
0.186830 -0.257978 0.262944 76 153 0
0.149158 0.815197 0.223566 76 0 153
0.324764 0.320427 0.303352 76 153 0
0.120043 0.843680 -0.004369 76 0 153
0.064430 0.821552 0.164235 153 0 76
-0.026884 -0.104650 -0.461443 76 153 0
-0.341886 -0.763549 0.117421 76 153 0
0.315984 -0.144099 0.170413 76 153 0
0.392336 -0.262791 -0.061650 76 153 0
-0.341044 0.527502 -0.095336 76 153 0
0.181705 0.585510 0.384083 76 153 0
-0.159502 0.747422 0.094710 76 0 153
-0.349031 0.050441 -0.211620 76 153 0
-0.075535 0.744367 0.143687 76 0 153
-0.171215 -0.682252 0.261695 76 153 0
-0.170602 0.421945 0.453837 76 153 0
0.044935 0.305744 -0.329279 76 153 0
-0.077755 0.432123 0.486538 76 153 0
-0.396787 0.006369 -0.019297 76 153 0
-0.046950 -0.756603 0.089877 76 153 0
-0.260295 -0.750458 0.180139 76 153 0
0.173225 -0.412534 0.249952 76 153 0
0.167132 -0.742303 -0.446246 76 153 0
0.361624 -0.775866 -0.054812 76 153 0
0.126672 0.055734 0.391443 76 153 0
-0.195910 0.561093 0.407983 76 153 0
-0.027506 0.750296 0.048652 76 0 153
0.163248 -0.765379 0.022600 76 153 0
-0.090252 0.903145 0.020510 153 0 76
-0.310992 -0.761633 0.049376 76 153 0
-0.330217 -0.116720 -0.284111 76 153 0
0.282590 -0.413718 -0.380562 76 153 0
-0.385125 0.212570 0.148338 76 153 0
0.330132 -0.240202 0.131160 76 153 0
-0.250581 -0.838778 -0.382101 76 153 0
-0.161556 0.855572 0.050711 76 0 153
-0.337925 -0.222987 -0.292562 76 153 0
0.061915 0.770910 0.290539 76 0 153
-0.389621 -0.309378 -0.156386 76 153 0
0.048813 0.790455 0.258278 153 0 76
-0.212500 -0.839522 -0.380928 76 153 0
0.052542 -0.372027 0.289233 76 153 0
-0.319982 -0.655704 0.133011 76 153 0
0.139622 0.391587 -0.282679 76 153 0
-0.292129 -0.215747 0.188221 76 153 0
-0.001158 0.928601 0.131833 153 0 76
-0.142742 0.383773 0.460497 76 153 0
0.341019 -0.125570 -0.269436 76 153 0
-0.390935 -0.584130 -0.052697 76 153 0
-0.112960 0.342599 0.466650 76 153 0
-0.384248 -0.738342 0.013492 76 153 0
-0.313328 0.519372 -0.132332 76 153 0
-0.140414 0.616048 -0.105363 76 153 0
0.252239 -0.267031 0.214422 76 153 0
-0.396412 0.331996 0.070541 76 153 0
0.304484 -0.407734 0.144888 76 153 0
-0.289701 0.615114 -0.090395 76 153 0
-0.164113 -0.032088 0.344677 76 153 0
0.134997 0.134787 0.411331 76 153 0
0.178236 0.602357 0.114064 76 153 0
0.390542 -0.306597 -0.136688 76 153 0
-0.053316 0.889938 0.263289 153 0 76
0.375805 -0.524838 -0.224014 76 153 0
-0.131412 0.610996 0.170094 153 0 76
0.130773 -0.330209 0.275313 76 153 0
0.097552 -0.682177 -0.480406 76 153 0
-0.112213 0.868281 -0.010106 76 0 153
-0.017054 0.617625 -0.130639 76 153 0
-0.349585 -0.514918 -0.291215 76 153 0
-0.350680 -0.381285 -0.285190 76 153 0
-0.271684 0.469386 -0.187662 76 153 0
0.259027 -0.195671 0.222882 76 153 0
-0.393549 -0.170697 -0.105648 76 153 0
-0.271263 -0.609040 -0.390334 76 153 0
-0.259245 -0.803183 -0.285229 76 153 0
0.391481 0.316319 0.041491 76 153 0
-0.151022 -0.744909 -0.453324 76 153 0
-0.225874 0.613263 -0.060734 76 153 0
0.128878 -0.757831 -0.460345 76 153 0
-0.232491 -0.761824 0.047833 76 153 0
0.093788 -0.642326 -0.484141 76 153 0
0.354264 0.405000 0.265739 76 153 0
0.354675 0.168650 -0.142751 76 153 0
0.021151 -0.742425 0.204055 76 153 0
0.206538 0.216720 -0.302763 76 153 0
-0.374414 -0.083525 0.075509 76 153 0
-0.107897 0.920441 0.227063 153 0 76
0.234889 -0.352561 0.216168 76 153 0
-0.357426 0.282043 0.239783 76 153 0
0.182794 0.464619 0.452695 76 153 0
-0.171351 0.810312 0.179886 76 0 153
-0.348168 0.126619 -0.180206 76 153 0
-0.129863 0.739754 0.217605 76 0 153
0.292920 0.528746 -0.155970 76 153 0
0.383928 -0.007884 0.067539 76 153 0
-0.390544 -0.358729 -0.154121 76 153 0
0.345818 -0.019541 -0.235308 76 153 0
0.103332 0.975261 0.174039 76 0 153
-0.071458 -0.204071 -0.471882 76 153 0
0.382803 0.564778 0.010295 76 153 0
0.388169 -0.574681 -0.044495 76 153 0
-0.086328 -0.137551 0.331128 76 153 0
0.069286 0.816348 0.247650 153 0 76
-0.058475 0.613498 -0.064500 76 153 0
-0.365369 -0.263579 -0.238598 76 153 0
0.065927 0.580904 0.457896 76 153 0
-0.069678 0.171262 0.439913 76 153 0
-0.359829 0.090565 0.180062 76 153 0
-0.339848 -0.555116 0.099521 76 153 0
-0.028869 0.256333 0.464807 76 153 0
-0.384241 -0.553568 -0.206241 76 153 0
-0.386943 0.452332 0.181573 76 153 0
0.184643 0.007670 -0.390830 76 153 0
0.279938 0.601825 0.122600 76 153 0
0.231900 0.020612 0.320725 76 153 0
0.385166 0.524074 0.025325 76 153 0
-0.025682 -0.223019 -0.480497 76 153 0
0.158008 0.431208 0.459610 76 153 0
-0.046110 0.735760 0.281623 76 0 153
0.173720 -0.828698 -0.404113 76 153 0
0.385004 -0.603390 -0.185823 76 153 0
-0.207794 0.598369 0.177976 76 153 0
-0.033742 0.590416 0.305456 76 153 0
-0.354930 0.366602 -0.089440 76 153 0
0.083904 0.751253 0.033318 76 0 153
-0.047808 0.188530 0.447057 76 153 0
-0.204424 0.279438 -0.283944 76 153 0
-0.391594 -0.113424 -0.108866 76 153 0
-0.143373 -0.792473 -0.450754 76 153 0
-0.396808 0.165631 0.029161 76 153 0
0.007631 -0.038344 -0.450015 76 153 0
-0.334025 0.192340 0.263950 76 153 0
-0.378792 0.408761 -0.022996 76 153 0
0.078066 -0.797648 -0.240654 76 153 0
0.393587 0.071367 -0.018082 76 153 0
0.156090 -0.486063 -0.465977 76 153 0
0.040226 -0.305933 0.298799 76 153 0
-0.008586 0.894715 0.101995 153 0 76
-0.353371 -0.166895 0.106920 76 153 0
-0.094024 0.042485 0.399100 76 153 0
-0.381463 -0.393854 -0.211655 76 153 0
-0.031239 0.250413 -0.349785 76 153 0
-0.172423 0.018060 0.359330 76 153 0
-0.325941 -0.359863 -0.323019 76 153 0
0.389335 -0.530921 -0.155816 76 153 0
0.271457 -0.434635 -0.391151 76 153 0
0.387221 0.078105 0.075189 76 153 0
-0.047697 0.740146 0.211323 76 0 153
-0.350047 0.604838 0.074300 76 153 0
-0.381346 -0.647219 -0.208359 76 153 0
0.357761 -0.523567 0.056550 76 153 0
-0.278117 -0.324794 0.187202 76 153 0
0.374121 -0.663672 -0.220548 76 153 0
-0.119719 -0.739089 0.230916 76 153 0
0.387944 -0.078973 0.009368 76 153 0
-0.333452 0.281432 -0.151048 76 153 0
0.198290 -0.123423 -0.413908 76 153 0
0.390487 0.379306 0.131210 76 153 0
-0.347273 -0.335280 0.094087 76 153 0
0.242445 0.520291 0.416852 76 153 0
-0.307262 -0.492552 0.140625 76 153 0
-0.235590 -0.772014 -0.034222 76 153 0
-0.283666 0.208027 -0.242918 76 153 0
-0.393323 -0.491502 -0.138313 76 153 0
0.216303 -0.098898 0.286629 76 153 0
-0.005071 0.938028 0.313265 76 0 153
0.141260 -0.058770 0.343936 76 153 0
-0.181461 0.358509 -0.273327 76 153 0
0.166847 -0.616297 -0.457960 76 153 0
-0.104252 0.581274 0.451974 76 153 0
0.283364 -0.521480 -0.380863 76 153 0
-0.292106 -0.649330 -0.365688 76 153 0
-0.087223 0.971705 0.105261 76 0 153
-0.328183 0.435018 0.318773 76 153 0
-0.357290 0.166817 0.210780 76 153 0
-0.358910 -0.014816 0.142447 76 153 0
-0.188320 0.165110 -0.335815 76 153 0
-0.053847 -0.036824 0.376655 76 153 0
-0.361346 -0.482683 0.051447 76 153 0
-0.160134 0.816013 0.044803 76 0 153
0.088276 -0.305813 0.292445 76 153 0
0.393239 -0.096343 -0.036281 76 153 0
-0.010007 0.756816 -0.055838 76 0 153
-0.386207 -0.672468 -0.009379 76 153 0
-0.327953 -0.782281 -0.116906 76 153 0
-0.292805 0.007454 0.260971 76 153 0
0.280402 -0.479821 -0.385114 76 153 0
0.392640 0.221676 0.026330 76 153 0
0.377056 -0.574006 0.011814 76 153 0
-0.191511 0.128243 0.386078 76 153 0
0.209191 0.397820 0.429816 76 153 0
-0.312776 0.402331 -0.150097 76 153 0
-0.139754 0.097258 0.399153 76 153 0
-0.273603 -0.653245 0.189266 76 153 0
0.364401 -0.780156 -0.230558 76 153 0
-0.137507 0.861620 0.086896 153 0 76
0.128016 0.818975 0.187354 153 0 76
0.140148 0.612104 -0.042152 76 153 0
-0.393548 0.507240 0.075134 76 153 0
0.045710 -0.233142 0.311099 76 153 0
0.144936 -0.530758 0.259344 76 153 0
-0.084006 0.357565 -0.309492 76 153 0
-0.194057 0.478619 -0.244579 76 153 0
0.068719 -0.463007 -0.492425 76 153 0
0.015973 0.251067 -0.351453 76 153 0
0.148526 0.138854 -0.365044 76 153 0
0.128650 0.583335 0.418934 76 153 0
0.393192 -0.686636 -0.073468 76 153 0
-0.115194 0.743578 0.156325 76 0 153
0.137084 0.556566 0.470684 76 153 0
-0.195636 -0.810071 -0.340698 76 153 0
0.051707 0.970439 0.251312 76 0 153
-0.376972 -0.295030 -0.214331 76 153 0
0.392457 -0.262674 -0.116515 76 153 0
0.033030 0.075514 0.417645 76 153 0
-0.085120 0.615955 -0.103874 76 153 0
0.075367 -0.594973 0.284164 76 153 0
0.284243 -0.262638 -0.366202 76 153 0
0.257640 -0.672546 0.202584 76 153 0
-0.107951 0.761727 0.217089 153 0 76
-0.139515 0.867171 0.166340 153 0 76
0.222248 0.558833 0.434354 76 153 0
0.248722 -0.053879 -0.360113 76 153 0
-0.217139 -0.525488 -0.434718 76 153 0
-0.058655 0.293953 0.468278 76 153 0
0.088169 -0.643299 0.287109 76 153 0
-0.321831 -0.267901 -0.319718 76 153 0
-0.120405 0.884645 0.263528 76 0 153
-0.304190 -0.402134 -0.353988 76 153 0
-0.312175 0.600943 0.136726 76 153 0
-0.226534 -0.377425 0.221413 76 153 0
0.195577 -0.134862 0.287528 76 153 0
-0.306875 -0.474712 -0.352683 76 153 0
-0.192297 -0.358119 0.247202 76 153 0
0.207853 -0.383499 -0.437718 76 153 0
0.023249 0.882340 0.220034 153 0 76
-0.397250 -0.119684 -0.066273 76 153 0
-0.325988 -0.191952 -0.303477 76 153 0
0.377994 0.371366 -0.027836 76 153 0
-0.121442 0.578684 -0.264572 76 153 0
-0.276596 0.603690 0.092697 76 153 0
0.008286 0.448659 0.497121 76 153 0
0.156439 0.565390 -0.250230 76 153 0
-0.166976 -0.802225 -0.277510 76 153 0
0.106353 -0.811615 -0.353125 76 153 0
-0.032218 0.620289 -0.173342 76 153 0
-0.062355 0.857001 0.257487 153 0 76
0.134345 -0.680596 0.276171 76 153 0
-0.111107 -0.131635 -0.452813 76 153 0
-0.137602 -0.151806 0.308333 76 153 0
-0.371537 0.374344 -0.047110 76 153 0
-0.032883 -0.014429 0.388100 76 153 0
-0.064985 0.981887 0.067840 76 0 153
0.006247 -0.317361 -0.493286 76 153 0
0.169884 -0.676595 -0.452084 76 153 0
-0.345620 -0.013730 0.177612 76 153 0
-0.070464 0.121545 0.426444 76 153 0
-0.097532 -0.050487 0.365331 76 153 0
-0.389260 -0.336273 -0.034516 76 153 0
0.040241 0.197385 -0.369100 76 153 0
0.389098 -0.000397 0.028134 76 153 0
-0.355310 -0.529131 0.066435 76 153 0
0.347808 0.133436 0.220383 76 153 0
-0.210246 0.587577 0.350951 76 153 0
-0.286991 -0.346275 0.174937 76 153 0
0.182607 -0.781663 -0.111926 76 153 0
0.021856 0.590088 0.310703 76 153 0
0.203904 0.532952 0.447215 76 153 0
0.297187 -0.130576 0.198910 76 153 0
0.139494 -0.790471 -0.182856 76 153 0
-0.229987 -0.674691 -0.417105 76 153 0
0.287332 -0.176289 0.200880 76 153 0
0.384763 -0.043137 0.044707 76 153 0
-0.259411 -0.725412 0.208936 76 153 0
0.170083 0.608626 0.013595 76 153 0
0.152001 -0.775238 -0.060189 76 153 0
0.244328 0.609842 -0.005904 76 153 0
0.379939 -0.184542 -0.187116 76 153 0
0.348993 -0.536900 0.077818 76 153 0
-0.138679 0.861520 0.015588 76 0 153
-0.341629 0.416068 0.298678 76 153 0
-0.141712 0.585355 0.386566 76 153 0
0.055051 0.652189 -0.015327 153 0 76
0.275040 0.593625 0.254020 76 153 0
0.395228 -0.779497 -0.077726 76 153 0
0.082302 0.986819 -0.011215 76 0 153
0.390776 0.400000 0.052373 76 153 0
0.239095 -0.843681 -0.378334 76 153 0
0.114564 0.794526 0.208378 153 0 76
0.289273 0.589974 0.312542 76 153 0
-0.210009 -0.794157 -0.212539 76 153 0
0.271882 -0.344674 -0.386178 76 153 0
-0.131984 0.123596 0.410311 76 153 0
-0.105912 0.706603 0.216310 153 0 76
-0.379097 -0.508735 -0.220161 76 153 0
0.071044 -0.057106 -0.445407 76 153 0
-0.092432 -0.853957 -0.461084 76 153 0
-0.095766 0.133803 -0.389685 76 153 0
-0.174592 0.927236 0.087376 76 0 153
-0.349093 0.265199 0.256471 76 153 0
-0.006066 0.074789 0.421352 76 153 0
-0.017264 0.692500 0.260068 153 0 76
-0.355989 -0.088619 -0.230959 76 153 0
0.278470 -0.787612 -0.159837 76 153 0
-0.070566 0.309220 -0.324923 76 153 0
-0.102643 0.617741 -0.132498 76 153 0
-0.259021 -0.361409 -0.398336 76 153 0
0.113186 -0.334702 -0.477527 76 153 0
-0.158855 -0.234833 0.279839 76 153 0
0.217475 -0.592979 -0.431049 76 153 0
-0.327934 0.459903 0.322062 76 153 0
-0.394127 0.552829 0.083186 76 153 0
0.387714 0.582799 0.050234 76 153 0
0.079667 0.586716 0.364752 76 153 0
0.164924 0.215315 -0.325071 76 153 0
-0.152655 0.405351 0.459165 76 153 0
0.246770 0.466251 -0.206141 76 153 0
0.202385 -0.639796 -0.439897 76 153 0
-0.347447 -0.225170 0.109662 76 153 0
0.227341 -0.770605 -0.022874 76 153 0
-0.059099 -0.282442 0.300310 76 153 0
0.158861 -0.257292 0.274792 76 153 0
0.330298 -0.706517 -0.308222 76 153 0
-0.173216 0.590969 0.296587 76 153 0
0.277888 -0.749147 0.149926 76 153 0
0.066500 -0.554425 0.282859 76 153 0
0.309735 -0.327304 -0.339473 76 153 0
-0.231316 0.202473 -0.289208 76 153 0
-0.119954 -0.795691 -0.224892 76 153 0
0.384361 0.054076 -0.101255 76 153 0
-0.080400 -0.024904 0.377447 76 153 0
-0.382755 0.283926 -0.039994 76 153 0
-0.126136 0.832245 0.057518 153 0 76
0.300381 0.572274 -0.142830 76 153 0
0.022467 -0.632975 0.294589 76 153 0
-0.116855 0.491458 0.483333 76 153 0
0.101719 0.806645 0.225923 153 0 76
-0.178878 -0.258679 -0.443532 76 153 0
0.377241 -0.326410 0.018457 76 153 0
-0.372879 -0.082402 -0.187651 76 153 0
-0.118455 -0.601543 0.275005 76 153 0
0.386594 -0.764030 -0.013690 76 153 0
-0.145676 0.750547 0.044626 76 0 153
0.343142 0.349088 0.283909 76 153 0
0.173274 0.452360 -0.256772 76 153 0
0.169255 -0.302860 0.262936 76 153 0
0.046939 -0.457117 0.284642 76 153 0
0.015836 -0.100598 0.356594 76 153 0
-0.246865 0.356857 0.395873 76 153 0
-0.126730 0.522838 -0.267057 76 153 0
-0.283431 0.412441 -0.187003 76 153 0
-0.182832 -0.494304 -0.455516 76 153 0
-0.392124 0.033714 -0.059431 76 153 0
0.355155 -0.096754 -0.230694 76 153 0
0.029032 0.839572 0.238949 153 0 76
0.170437 0.301038 -0.293263 76 153 0
-0.343939 0.154994 -0.179191 76 153 0
0.014650 0.918538 0.274304 153 0 76
0.394924 0.460931 0.093021 76 153 0
-0.150217 -0.792514 -0.199307 76 153 0
-0.337714 0.486969 -0.104012 76 153 0
-0.014740 0.054166 0.413873 76 153 0
0.038779 -0.808835 -0.330743 76 153 0
-0.281311 0.305110 -0.214864 76 153 0
-0.142194 0.741747 0.185677 76 0 153
-0.027166 0.838273 0.029132 153 0 76
0.313140 -0.783328 -0.125334 76 153 0
0.294615 0.140632 0.300688 76 153 0
0.383750 0.476683 0.009643 76 153 0
-0.389047 0.349784 0.149565 76 153 0
0.239740 -0.749824 0.144472 76 153 0
-0.378630 -0.454140 0.010535 76 153 0
-0.145966 0.866934 0.233091 76 0 153
-0.338488 -0.554582 -0.310699 76 153 0
-0.362783 0.112955 -0.147749 76 153 0
0.339543 -0.324398 0.106272 76 153 0
-0.342888 -0.140936 -0.272315 76 153 0
-0.388995 0.473668 0.036892 76 153 0
-0.386327 -0.045100 0.044569 76 153 0
-0.386742 -0.774863 -0.001027 76 153 0
-0.136646 -0.154103 -0.445942 76 153 0
-0.007919 -0.157781 0.334343 76 153 0
-0.385735 0.106756 -0.081309 76 153 0
-0.188801 -0.405787 -0.451294 76 153 0
-0.241200 0.378776 -0.228045 76 153 0
-0.394631 -0.396216 -0.125407 76 153 0
0.338651 0.607522 0.031293 76 153 0
0.264297 0.402664 -0.203720 76 153 0
-0.392132 -0.800224 -0.039048 76 153 0
0.374403 0.055982 -0.137563 76 153 0
0.131292 0.617729 -0.132299 76 153 0
-0.148792 0.932786 0.233508 76 0 153
-0.333319 -0.472471 -0.318217 76 153 0
-0.086756 0.063795 0.406916 76 153 0
0.114088 0.591319 0.290979 76 153 0
0.087215 0.903729 0.288326 76 0 153
0.376681 -0.556711 -0.221172 76 153 0
0.286600 0.355661 0.359872 76 153 0
0.180418 -0.285639 -0.444926 76 153 0
-0.001233 -0.537609 -0.501335 76 153 0
-0.376467 -0.670825 -0.218233 76 153 0
-0.051797 -0.748531 0.154880 76 153 0
-0.056562 0.266722 0.463158 76 153 0
0.245974 -0.432419 -0.410616 76 153 0
-0.375533 -0.019026 0.097273 76 153 0
0.170148 0.327042 0.439461 76 153 0
-0.099133 0.583685 0.413328 76 153 0
-0.383148 0.341078 -0.025267 76 153 0
0.106993 0.739285 0.027789 153 0 76
-0.102200 -0.792502 -0.199211 76 153 0
-0.143961 -0.471610 -0.471565 76 153 0
0.275826 -0.736824 -0.373881 76 153 0
0.351776 -0.064248 -0.231509 76 153 0
0.280598 -0.237426 -0.367598 76 153 0
-0.079381 -0.762289 0.047482 76 153 0
0.039735 0.501533 0.497927 76 153 0
0.303653 -0.555540 0.144547 76 153 0
0.090124 -0.379443 0.283544 76 153 0
0.201401 -0.798974 -0.251333 76 153 0
-0.183200 0.621021 -0.193692 76 153 0
0.163125 0.746590 0.108049 76 0 153
-0.068170 0.237798 -0.349382 76 153 0
-0.139707 0.718894 0.155632 153 0 76
-0.035257 0.933767 0.004897 153 0 76
0.346709 -0.484685 0.082810 76 153 0
0.356006 0.250815 0.231979 76 153 0
-0.337499 -0.814025 -0.287859 76 153 0
0.381657 0.214172 -0.058645 76 153 0
0.236189 -0.154733 -0.389815 76 153 0
-0.013286 0.925442 0.086373 153 0 76
0.097577 0.759223 -0.026911 76 0 153
0.014001 -0.272431 0.307816 76 153 0
0.257400 -0.798269 -0.245657 76 153 0
0.343422 0.393611 0.290524 76 153 0
0.233268 -0.377756 0.214944 76 153 0
-0.346787 0.239416 -0.142892 76 153 0
-0.392045 -0.245960 -0.129881 76 153 0
0.367399 0.481000 0.243013 76 153 0
-0.251557 0.431250 -0.209426 76 153 0
-0.123909 0.678327 0.043952 153 0 76
0.204798 0.595418 0.225275 76 153 0
-0.052148 0.742820 -0.011554 76 0 153
0.128018 0.858279 0.253859 76 0 153
-0.007677 0.216756 -0.365870 76 153 0
0.118922 -0.128432 -0.448304 76 153 0
0.351444 -0.512168 -0.282837 76 153 0
0.159634 0.870339 0.208030 76 0 153
0.388941 0.349717 0.137774 76 153 0
-0.075169 0.715657 0.242429 153 0 76
0.113192 0.763523 0.208237 153 0 76
-0.391342 0.234744 0.105495 76 153 0
-0.167308 0.904029 0.195513 76 0 153
-0.155073 0.539879 -0.253650 76 153 0
0.385071 -0.178425 -0.159843 76 153 0
0.234441 -0.519326 0.209241 76 153 0
-0.395843 0.290556 0.056753 76 153 0
-0.139176 0.009601 -0.410405 76 153 0
-0.126709 -0.768957 -0.460616 76 153 0
-0.070254 0.845189 -0.036571 76 0 153
0.138995 0.893912 0.241748 76 0 153
-0.318517 -0.154616 -0.306953 76 153 0
-0.366142 0.481120 -0.043232 76 153 0
0.385103 0.421343 0.179161 76 153 0
-0.228388 -0.281937 0.231671 76 153 0
0.067579 0.618809 -0.149618 76 153 0
-0.237833 -0.528389 -0.418841 76 153 0
-0.397331 -0.467900 -0.107670 76 153 0
-0.072397 -0.628022 -0.488339 76 153 0
-0.154714 -0.775498 -0.062277 76 153 0
-0.051988 0.062585 0.411323 76 153 0
-0.138233 0.687464 0.077787 153 0 76
0.266863 0.196201 0.346106 76 153 0
-0.243565 0.265824 0.381729 76 153 0
-0.042604 0.972629 0.090446 153 0 76
-0.240323 -0.781969 -0.114391 76 153 0
0.152128 -0.013561 0.356286 76 153 0
0.226138 0.409295 -0.232198 76 153 0
0.040638 0.987629 -0.024191 76 0 153
0.008371 -0.530412 0.289427 76 153 0
-0.296610 -0.624330 0.160360 76 153 0
-0.379027 0.078271 -0.119827 76 153 0
-0.389993 -0.091266 -0.115943 76 153 0
0.388786 -0.645110 -0.153795 76 153 0
-0.030545 -0.100057 0.354958 76 153 0
0.377619 0.579154 0.108659 76 153 0
-0.159604 -0.598635 0.257702 76 153 0
0.051923 0.546594 0.499134 76 153 0
0.101603 0.973813 0.197237 76 0 153
-0.251413 -0.769905 -0.017240 76 153 0
-0.324316 -0.609013 -0.326682 76 153 0
-0.251255 0.308312 -0.237839 76 153 0
0.058258 -0.745435 0.179818 76 153 0
-0.363766 0.352642 -0.070523 76 153 0
-0.318000 0.285548 -0.170753 76 153 0
-0.120296 0.439208 0.476889 76 153 0
-0.392954 -0.063416 -0.085987 76 153 0
-0.135844 -0.314634 0.275970 76 153 0
0.394105 -0.556894 -0.118872 76 153 0
0.388654 0.065775 -0.060955 76 153 0
-0.192210 0.598828 -0.206662 76 153 0
-0.252406 0.585370 0.366106 76 153 0
-0.042849 -0.166524 0.327170 76 153 0
-0.277915 -0.461060 -0.388145 76 153 0
-0.386275 0.134110 0.115676 76 153 0
0.324764 -0.018441 -0.266657 76 153 0
0.218740 0.481439 0.431891 76 153 0
0.019849 -0.480109 0.287600 76 153 0
0.386189 -0.798076 -0.011079 76 153 0
-0.268982 0.369518 0.380784 76 153 0
0.334785 0.477694 -0.106920 76 153 0
0.318286 0.158377 -0.211329 76 153 0
0.342887 0.596103 0.209298 76 153 0
-0.366516 0.485089 0.249489 76 153 0
0.124900 0.739113 0.227893 76 0 153
-0.395579 -0.443826 -0.120322 76 153 0
0.049702 0.621644 -0.195056 76 153 0
0.151100 -0.754346 0.108052 76 153 0
-0.096769 -0.615894 0.283258 76 153 0
-0.069849 0.968727 0.278753 76 0 153
-0.175513 0.201757 0.412062 76 153 0
-0.128419 -0.526176 0.266803 76 153 0
-0.116892 0.771417 0.040588 153 0 76
0.145232 0.606812 0.042670 153 0 76
-0.391629 -0.682139 -0.049631 76 153 0
0.373750 -0.035808 0.090327 76 153 0
-0.328198 0.136914 0.256104 76 153 0
-0.159404 -0.757563 0.082151 76 153 0
0.312894 0.373687 0.328168 76 153 0
-0.387351 -0.581556 -0.025612 76 153 0
-0.351358 -0.363636 0.081417 76 153 0
-0.392496 0.078632 -0.037396 76 153 0
-0.389388 0.108222 0.081891 76 153 0
-0.278507 -0.558428 -0.387077 76 153 0
-0.051832 0.972905 0.002670 153 0 76
-0.385401 -0.584644 -0.196027 76 153 0
-0.319762 0.460381 -0.131008 76 153 0
0.274812 -0.389328 -0.386701 76 153 0
0.069568 -0.807293 -0.318322 76 153 0
-0.314016 0.591664 0.282806 76 153 0
0.097522 -0.378336 -0.485491 76 153 0
0.388339 0.132067 0.085391 76 153 0
0.247405 -0.474874 -0.410633 76 153 0
-0.393901 0.384347 0.118331 76 153 0
-0.387233 -0.527712 -0.026741 76 153 0
0.290437 -0.658357 -0.365005 76 153 0
-0.294178 -0.782923 -0.122077 76 153 0
0.288401 -0.294455 0.177411 76 153 0
0.334666 0.589466 -0.056614 76 153 0
0.292640 0.154919 -0.248825 76 153 0
0.128030 0.180304 -0.355747 76 153 0
-0.131215 0.943013 0.191284 153 0 76
-0.384325 -0.187918 -0.179735 76 153 0
0.322402 0.269050 0.296125 76 153 0
-0.368441 -0.322193 -0.237649 76 153 0
-0.376735 -0.323117 0.023950 76 153 0
-0.385579 0.415863 0.187274 76 153 0
-0.082538 0.963040 0.244141 153 0 76
0.073331 0.571924 -0.276179 76 153 0
-0.355072 -0.442872 -0.277356 76 153 0
0.022877 -0.803004 -0.283782 76 153 0
0.062259 -0.421007 0.284193 76 153 0
0.308173 0.168428 0.290148 76 153 0
0.084941 -0.810270 -0.342301 76 153 0
0.126701 0.242102 -0.331808 76 153 0
0.092370 -0.136652 -0.458123 76 153 0
-0.210834 -0.744077 0.190748 76 153 0
0.184930 0.311592 0.430736 76 153 0
-0.361712 -0.199859 0.079535 76 153 0
-0.294430 0.405716 0.359241 76 153 0
0.340878 -0.675637 -0.297776 76 153 0
-0.049705 -0.851317 -0.441245 76 153 0
0.106516 -0.511272 0.275042 76 153 0
-0.385277 -0.704271 -0.186876 76 153 0
-0.016117 -0.766743 0.011612 76 153 0
-0.249993 -0.447180 0.199202 76 153 0
-0.170530 -0.759324 -0.443511 76 153 0
0.012401 0.873311 0.178986 153 0 76
-0.213042 -0.332704 0.236424 76 153 0
0.157552 -0.226048 -0.447364 76 153 0
-0.029403 -0.068554 0.368050 76 153 0
0.109643 0.679234 0.027497 153 0 76
0.077599 -0.007078 -0.432970 76 153 0
-0.162287 0.918741 0.056421 76 0 153
-0.227012 -0.243546 0.239304 76 153 0
-0.149965 0.952755 0.036017 76 0 153
0.164332 -0.715245 -0.450589 76 153 0
0.143221 0.481621 0.470762 76 153 0
-0.003477 0.736329 0.272508 76 0 153
0.085557 0.698369 0.232121 153 0 76
-0.162405 0.497973 -0.255262 76 153 0
-0.348349 -0.266160 -0.280323 76 153 0
-0.164808 0.585294 0.387542 76 153 0
-0.364557 0.357195 0.236929 76 153 0
0.346737 0.576873 0.188068 76 153 0
-0.150391 -0.115331 0.317173 76 153 0
-0.395676 0.361983 0.070801 76 153 0
-0.363091 -0.789071 -0.168620 76 153 0
-0.127536 -0.338960 -0.472522 76 153 0
0.017329 -0.671866 -0.491820 76 153 0
0.318999 -0.030527 0.207225 76 153 0
-0.154608 0.610733 -0.020180 153 0 76
0.223668 0.613559 -0.065479 76 153 0
-0.024692 0.306748 0.475227 76 153 0
-0.026573 -0.774819 -0.056811 76 153 0
-0.357869 -0.038034 0.135459 76 153 0
0.311197 0.595965 0.216510 76 153 0
0.393422 -0.556989 -0.085165 76 153 0
-0.328342 0.077944 0.237048 76 153 0
-0.291073 -0.058449 0.237218 76 153 0
-0.352046 0.452255 0.281220 76 153 0
0.054181 0.233970 0.456578 76 153 0
0.062190 0.737913 0.247125 76 0 153
0.395845 -0.748430 -0.088417 76 153 0
